ply
format ascii 1.0
comment Author: CloudCompare (TELECOM PARISTECH/EDF R&D)
obj_info Generated by CloudCompare!
element vertex 1183
property float x
property float y
property float z
property uchar red
property uchar green
property uchar blue
property float scalar_Scalar_field
end_header
99.3102 98.642 200.687 80 94 68 -1593 
99.3099 98.6415 200.685 90 102 74 -1571 
99.3102 98.6418 200.684 94 92 116 -1585 
99.3097 98.6408 200.682 86 88 126 -1575 
99.3107 98.6428 200.682 76 92 82 -1586 
99.3092 98.642 200.681 78 100 62 -1588 
99.3102 98.644 200.684 80 102 74 -1572 
99.3094 98.6423 200.684 90 102 86 -1570 
99.3094 98.6425 200.685 82 94 80 -1582 
99.3094 98.6423 200.686 82 94 88 -1580 
99.3084 98.6403 200.686 92 96 92 -1585 
99.3087 98.641 200.688 88 98 72 -1582 
99.3087 98.6408 200.689 86 102 74 -1583 
99.3089 98.6415 200.691 96 110 74 -1574 
99.3082 98.64 200.691 92 112 64 -1575 
99.3097 98.643 200.694 78 106 60 -1582 
99.3107 98.6448 200.697 74 106 64 -1578 
99.3089 98.6413 200.695 82 108 78 -1585 
99.3092 98.642 200.697 78 100 78 -1571 
99.3084 98.6405 200.697 76 100 86 -1582 
99.3084 98.6403 200.699 78 98 92 -1586 
99.3102 98.6438 200.702 72 90 76 -1581 
99.3099 98.6435 200.703 80 106 76 -1577 
99.3107 98.6448 200.705 76 102 68 -1580 
99.3089 98.6413 200.704 92 100 68 -1576 
99.3084 98.6405 200.705 94 106 78 -1581 
99.3082 98.6398 200.706 54 102 86 -1589 
99.3099 98.6435 200.709 72 104 88 -1591 
99.3084 98.6405 200.709 80 84 84 -1590 
99.3094 98.6425 200.711 86 98 84 -1587 
99.3087 98.6408 200.711 74 104 44 -1588 
99.3092 98.642 200.713 86 106 70 -1581 
99.3099 98.6435 200.715 74 100 62 -1583 
99.3114 98.6463 200.718 68 94 88 -1583 
99.3102 98.644 200.718 70 88 102 -1607 
99.3109 98.6455 200.72 76 112 66 -1641 
99.3119 98.6473 200.722 74 94 100 -1658 
99.3107 98.6448 200.722 80 94 96 -1668 
99.3112 98.6458 200.724 78 88 90 -1659 
99.3132 98.6495 200.727 74 84 98 -1658 
99.3114 98.6463 200.727 72 82 84 -1667 
99.3097 98.6428 200.726 86 96 88 -1672 
99.3139 98.651 200.732 78 80 78 -1666 
99.3112 98.6458 200.73 76 78 78 -1653 
99.3132 98.6495 200.733 86 96 74 -1661 
99.3119 98.6473 200.733 84 102 54 -1660 
99.3112 98.646 200.734 84 90 72 -1660 
99.3107 98.645 200.734 96 90 64 -1662 
99.3114 98.646 200.736 98 94 86 -1659 
99.3117 98.6465 200.738 68 82 84 -1656 
99.3117 98.6465 200.739 76 96 58 -1663 
99.3119 98.647 200.74 104 76 32 -1654 
99.3117 98.647 200.742 234 10 6 -1632 
99.3122 98.6478 200.743 252 0 0 -1586 
99.3107 98.6445 200.742 208 16 16 -1527 
99.3099 98.6435 200.743 138 48 44 -1504 
99.3072 98.6378 200.743 174 208 202 -1610 
99.3054 98.6345 200.744 192 210 214 -1609 
99.3054 98.6365 200.744 194 218 220 -1602 
99.3059 98.6375 200.743 180 202 202 -1607 
99.3099 98.6455 200.743 140 62 50 -1501 
99.3104 98.6463 200.742 206 22 8 -1528 
99.3107 98.6468 200.742 252 0 0 -1596 
99.3109 98.6475 200.741 242 4 12 -1643 
99.3112 98.648 200.74 110 66 60 -1658 
99.3124 98.6505 200.74 66 80 86 -1660 
99.3124 98.6503 200.739 96 80 86 -1654 
99.3112 98.6478 200.736 108 78 72 -1655 
99.3117 98.6488 200.736 88 88 76 -1647 
99.3099 98.6455 200.732 94 98 70 -1671 
99.3119 98.6495 200.734 80 84 84 -1666 
99.3099 98.6455 200.73 72 80 98 -1659 
99.3094 98.6448 200.728 76 90 80 -1654 
99.3114 98.6483 200.728 82 86 94 -1674 
99.3112 98.6478 200.727 74 78 86 -1676 
99.3114 98.6485 200.726 78 74 88 -1657 
99.3107 98.647 200.724 92 84 104 -1668 
99.3112 98.6478 200.723 70 90 78 -1664 
99.3102 98.6458 200.721 68 108 78 -1661 
99.3097 98.645 200.719 54 110 70 -1646 
99.3099 98.6455 200.718 82 84 98 -1619 
99.3112 98.6478 200.718 96 94 100 -1593 
99.3082 98.6423 200.714 84 92 70 -1593 
99.3097 98.6448 200.714 76 106 88 -1578 
99.3092 98.6443 200.712 74 94 114 -1580 
99.3079 98.6418 200.71 92 82 90 -1586 
99.3087 98.6433 200.71 100 100 90 -1581 
99.3089 98.6435 200.708 68 98 94 -1582 
99.3092 98.644 200.708 86 102 92 -1585 
99.3092 98.644 200.706 100 86 72 -1580 
99.3089 98.6433 200.704 94 80 76 -1581 
99.3089 98.6435 200.704 96 74 88 -1577 
99.3079 98.6415 200.701 90 88 104 -1582 
99.3079 98.6415 200.7 78 80 118 -1577 
99.3084 98.6425 200.699 94 98 106 -1579 
99.3092 98.6438 200.699 90 94 68 -1575 
99.3087 98.6433 200.697 92 98 90 -1585 
99.3087 98.6433 200.696 98 96 102 -1581 
99.3087 98.6428 200.695 98 94 88 -1585 
99.3087 98.6428 200.693 88 88 100 -1598 
99.3074 98.6405 200.69 84 84 112 -1587 
99.3077 98.641 200.689 112 100 90 -1572 
99.3097 98.645 200.691 84 92 94 -1572 
99.3089 98.6438 200.689 108 104 78 -1572 
99.3089 98.6433 200.687 100 102 52 -1581 
99.3099 98.6455 200.687 92 100 64 -1580 
99.3092 98.644 200.685 92 100 88 -1582 
99.3084 98.6425 200.683 86 100 90 -1574 
99.3089 98.6433 200.682 82 96 68 -1578 
99.3102 98.646 200.683 96 94 76 -1585 
99.3099 98.6453 200.681 78 88 98 -1587 
99.3082 98.6443 200.681 86 96 88 -1583 
99.3077 98.6433 200.682 98 110 60 -1582 
99.3082 98.6438 200.683 88 98 74 -1591 
99.3092 98.6458 200.686 72 80 92 -1583 
99.3097 98.6473 200.688 86 90 76 -1573 
99.3087 98.645 200.688 96 94 74 -1584 
99.3069 98.6415 200.687 96 96 94 -1594 
99.3089 98.6458 200.691 92 92 96 -1587 
99.3097 98.647 200.693 106 98 84 -1570 
99.3092 98.646 200.693 96 88 84 -1594 
99.3094 98.6465 200.695 92 86 90 -1590 
99.3084 98.6445 200.695 96 88 86 -1588 
99.3107 98.649 200.699 98 94 92 -1584 
99.3084 98.6445 200.697 80 96 76 -1583 
99.3097 98.647 200.7 94 104 70 -1580 
99.3084 98.6445 200.7 80 90 86 -1581 
99.3087 98.6453 200.702 80 86 110 -1582 
99.3097 98.647 200.704 94 94 102 -1581 
99.3094 98.6463 200.705 96 94 94 -1577 
99.3084 98.6448 200.705 82 82 80 -1572 
99.3084 98.6445 200.706 92 90 74 -1575 
99.3087 98.6448 200.707 98 102 80 -1567 
99.3079 98.6438 200.708 76 94 108 -1575 
99.3092 98.646 200.71 80 92 102 -1572 
99.3092 98.646 200.712 90 84 86 -1584 
99.3094 98.6465 200.713 82 84 100 -1587 
99.3094 98.6465 200.714 78 108 98 -1582 
99.3092 98.646 200.715 66 90 64 -1586 
99.3094 98.6465 200.717 96 100 84 -1590 
99.3082 98.6443 200.717 92 90 108 -1612 
99.3122 98.6518 200.722 88 90 108 -1636 
99.3097 98.6473 200.721 72 100 86 -1662 
99.3094 98.6468 200.722 80 96 92 -1656 
99.3117 98.6508 200.725 86 86 94 -1665 
99.3119 98.6515 200.727 78 76 86 -1665 
99.3127 98.6528 200.729 78 78 88 -1662 
99.3094 98.6468 200.727 82 90 88 -1670 
99.3124 98.6525 200.731 82 94 80 -1661 
99.3104 98.6485 200.73 82 92 76 -1664 
99.3099 98.6473 200.73 76 78 94 -1658 
99.3134 98.6543 200.736 76 78 90 -1663 
99.3109 98.6498 200.734 94 102 60 -1657 
99.3119 98.6513 200.736 70 104 104 -1661 
99.3114 98.6505 200.737 96 76 78 -1655 
99.3094 98.6465 200.736 86 84 86 -1658 
99.3092 98.6463 200.737 80 80 82 -1661 
99.3114 98.6505 200.741 134 54 58 -1660 
99.3109 98.6495 200.741 206 22 28 -1633 
99.3094 98.6463 200.741 254 4 0 -1593 
99.3109 98.6493 200.744 238 4 0 -1518 
99.3092 98.6463 200.743 126 80 64 -1489 
99.3084 98.6443 200.743 94 108 94 -1515 
99.3074 98.6425 200.743 154 166 140 -1569 
99.3062 98.64 200.743 184 206 206 -1600 
99.3034 98.635 200.743 194 220 220 -1604 
99.3004 98.631 200.743 178 202 208 -1596 
99.3012 98.6325 200.742 184 214 216 -1612 
99.3054 98.6408 200.743 186 212 210 -1610 
99.3069 98.6438 200.744 182 192 190 -1590 
99.3089 98.6475 200.743 96 114 82 -1507 
99.3094 98.6488 200.743 172 40 16 -1514 
99.3094 98.6485 200.742 242 8 0 -1579 
99.3114 98.6528 200.743 252 0 4 -1624 
99.3102 98.65 200.74 200 20 22 -1650 
99.3104 98.6505 200.739 78 86 72 -1654 
99.3114 98.6528 200.74 76 88 104 -1662 
99.3124 98.6545 200.739 66 72 100 -1663 
99.3104 98.6505 200.736 52 80 84 -1663 
99.3112 98.6518 200.735 74 96 28 -1663 
99.3109 98.6515 200.734 88 86 84 -1677 
99.3119 98.6535 200.734 76 72 78 -1654 
99.3122 98.654 200.733 70 76 66 -1654 
99.3109 98.6515 200.73 80 90 80 -1666 
99.3119 98.6533 200.73 80 86 80 -1667 
99.3102 98.6503 200.727 86 86 80 -1659 
99.3102 98.65 200.726 86 86 86 -1661 
99.3104 98.6505 200.725 82 84 98 -1659 
99.3112 98.652 200.725 88 90 102 -1664 
99.3079 98.6458 200.719 82 84 86 -1659 
99.3099 98.6493 200.721 76 82 114 -1653 
99.3074 98.6448 200.717 90 90 102 -1632 
99.3092 98.648 200.717 72 72 66 -1604 
99.3079 98.6455 200.714 78 92 98 -1596 
99.3087 98.647 200.714 68 86 80 -1578 
99.3062 98.642 200.71 92 104 88 -1585 
99.3087 98.6473 200.712 84 90 78 -1571 
99.3084 98.6468 200.711 86 90 100 -1573 
99.3094 98.6485 200.71 84 90 96 -1575 
99.3077 98.6453 200.707 84 98 92 -1580 
99.3079 98.6458 200.706 74 92 86 -1579 
99.3092 98.6483 200.707 74 116 78 -1575 
99.3082 98.6463 200.704 78 102 66 -1575 
99.3094 98.6483 200.704 96 100 86 -1582 
99.3079 98.6458 200.702 80 90 84 -1583 
99.3089 98.6473 200.701 86 102 94 -1575 
99.3089 98.6475 200.7 88 104 76 -1577 
99.3102 98.6503 200.701 80 100 72 -1582 
99.3074 98.6445 200.696 78 96 74 -1593 
99.3089 98.6478 200.697 88 84 92 -1584 
99.3097 98.6493 200.696 94 86 94 -1586 
99.3094 98.6485 200.695 94 92 80 -1581 
99.3074 98.6445 200.691 98 98 68 -1601 
99.3079 98.6455 200.69 90 92 98 -1588 
99.3089 98.6475 200.69 88 96 84 -1592 
99.3089 98.6478 200.689 98 90 78 -1579 
99.3077 98.645 200.686 92 86 92 -1580 
99.3094 98.6485 200.687 88 94 110 -1584 
99.3094 98.6485 200.686 90 94 88 -1577 
99.3089 98.6475 200.684 90 100 70 -1578 
99.3089 98.6475 200.683 72 100 84 -1582 
99.3082 98.6463 200.681 74 90 92 -1577 
99.3092 98.6505 200.683 64 94 86 -1580 
99.3087 98.6493 200.684 60 98 80 -1581 
99.3072 98.6463 200.683 92 104 106 -1592 
99.3072 98.6463 200.684 72 82 88 -1584 
99.3094 98.6508 200.689 82 88 102 -1575 
99.3084 98.6485 200.688 102 86 102 -1581 
99.3094 98.6508 200.691 102 88 84 -1592 
99.3077 98.6473 200.69 80 100 70 -1586 
99.3082 98.648 200.691 80 96 86 -1580 
99.3089 98.65 200.694 92 100 60 -1578 
99.3084 98.6488 200.695 94 100 86 -1594 
99.3097 98.651 200.697 86 88 102 -1587 
99.3077 98.6475 200.696 82 86 96 -1586 
99.3069 98.6458 200.696 76 96 68 -1584 
99.3082 98.648 200.699 72 92 64 -1579 
99.3072 98.6463 200.699 84 100 82 -1577 
99.3089 98.6498 200.702 80 98 92 -1577 
99.3084 98.6488 200.703 82 94 84 -1575 
99.3082 98.6485 200.704 76 86 48 -1577 
99.3092 98.6503 200.706 76 104 58 -1577 
99.3084 98.649 200.707 70 114 64 -1573 
99.3087 98.649 200.708 70 88 94 -1561 
99.3079 98.6478 200.709 80 94 104 -1569 
99.3074 98.6468 200.709 84 94 64 -1576 
99.3077 98.647 200.711 82 96 66 -1576 
99.3094 98.6508 200.714 82 96 78 -1567 
99.3069 98.646 200.712 82 92 80 -1575 
99.3087 98.649 200.715 86 96 90 -1590 
99.3089 98.6495 200.717 84 90 98 -1588 
99.3087 98.649 200.718 90 94 82 -1628 
99.3099 98.6518 200.721 90 94 72 -1638 
99.3104 98.6525 200.722 58 84 100 -1654 
99.3099 98.6515 200.723 82 86 66 -1667 
99.3094 98.6508 200.723 78 82 86 -1666 
99.3084 98.6488 200.723 76 78 94 -1667 
99.3094 98.651 200.726 82 80 86 -1669 
99.3104 98.6528 200.729 86 88 80 -1666 
99.3109 98.6538 200.73 86 92 82 -1649 
99.3097 98.6513 200.73 78 88 82 -1656 
99.3124 98.6565 200.734 86 90 84 -1657 
99.3102 98.6523 200.733 86 86 88 -1663 
99.3102 98.6523 200.734 80 86 82 -1657 
99.3109 98.6538 200.736 74 96 62 -1657 
99.3107 98.6533 200.737 74 88 86 -1664 
99.3099 98.6515 200.737 74 82 110 -1664 
99.3107 98.653 200.74 80 88 110 -1661 
99.3109 98.6535 200.741 102 78 64 -1655 
99.3114 98.6545 200.743 234 10 4 -1634 
99.3097 98.651 200.742 254 2 0 -1597 
99.3092 98.6503 200.744 150 70 48 -1502 
99.3082 98.6485 200.744 106 140 98 -1524 
99.3012 98.6365 200.744 180 212 214 -1596 
99.3079 98.6498 200.743 118 92 62 -1509 
99.3082 98.65 200.742 174 36 28 -1525 
99.3104 98.6545 200.744 254 0 0 -1581 
99.3094 98.6528 200.742 254 4 0 -1615 
99.3092 98.6523 200.74 134 68 56 -1647 
99.3107 98.655 200.74 84 86 104 -1659 
99.3099 98.6535 200.738 66 86 118 -1664 
99.3089 98.6515 200.736 106 78 74 -1661 
99.3084 98.6508 200.734 68 96 88 -1661 
99.3107 98.655 200.736 90 108 94 -1649 
99.3112 98.6563 200.735 88 100 96 -1656 
99.3114 98.6565 200.734 80 84 78 -1648 
99.3099 98.6538 200.731 84 90 64 -1651 
99.3094 98.6528 200.73 82 90 56 -1651 
99.3109 98.6558 200.73 82 84 96 -1668 
99.3102 98.654 200.728 78 78 100 -1676 
99.3107 98.6553 200.727 82 90 74 -1664 
99.3102 98.654 200.725 84 96 60 -1656 
99.3079 98.6495 200.721 78 94 50 -1661 
99.3104 98.6543 200.723 60 88 100 -1665 
99.3097 98.6533 200.721 66 92 72 -1652 
99.3079 98.65 200.718 82 98 64 -1632 
99.3074 98.6488 200.716 84 96 86 -1601 
99.3082 98.65 200.716 92 102 100 -1590 
99.3072 98.6483 200.714 80 94 94 -1563 
99.3077 98.6495 200.713 78 96 94 -1576 
99.3072 98.648 200.711 88 98 44 -1573 
99.3079 98.6498 200.711 100 104 50 -1576 
99.3082 98.6503 200.71 84 92 106 -1560 
99.3084 98.6508 200.709 76 90 98 -1565 
99.3072 98.6483 200.706 80 98 86 -1572 
99.3062 98.6465 200.704 64 92 76 -1586 
99.3092 98.652 200.706 74 92 70 -1573 
99.3089 98.6515 200.705 80 106 76 -1570 
99.3082 98.65 200.702 68 100 58 -1589 
99.3077 98.6495 200.701 74 100 72 -1574 
99.3074 98.6488 200.699 82 98 98 -1574 
99.3094 98.6528 200.701 92 92 86 -1590 
99.3059 98.6458 200.695 94 98 84 -1592 
99.3072 98.6485 200.695 80 92 84 -1593 
99.3082 98.6503 200.695 94 104 98 -1583 
99.3054 98.6448 200.691 90 92 72 -1591 
99.3069 98.648 200.691 74 108 78 -1585 
99.3079 98.6495 200.691 76 108 66 -1579 
99.3092 98.652 200.691 100 88 68 -1578 
99.3087 98.6513 200.689 104 90 88 -1565 
99.3089 98.6518 200.689 80 98 100 -1562 
99.3079 98.6498 200.686 86 104 98 -1576 
99.3074 98.6488 200.684 72 88 76 -1585 
99.3077 98.649 200.683 72 90 90 -1572 
99.3084 98.6508 200.683 72 90 98 -1574 
99.3079 98.6495 200.681 78 100 58 -1586 
99.3082 98.6523 200.683 84 102 58 -1572 
99.3059 98.6478 200.681 84 92 108 -1581 
99.3089 98.6535 200.686 86 96 106 -1572 
99.3064 98.649 200.684 76 98 72 -1595 
99.3074 98.6508 200.686 80 104 90 -1579 
99.3072 98.6503 200.688 80 84 98 -1576 
99.3079 98.6518 200.69 100 90 88 -1578 
99.3077 98.6513 200.691 98 90 62 -1581 
99.3069 98.6495 200.691 80 100 72 -1579 
99.3092 98.654 200.695 78 100 84 -1583 
99.3074 98.6508 200.694 94 98 64 -1581 
99.3062 98.6485 200.694 82 96 76 -1592 
99.3087 98.653 200.698 80 98 84 -1574 
99.3074 98.651 200.698 98 94 74 -1582 
99.3077 98.6515 200.699 88 76 80 -1580 
99.3069 98.6498 200.699 74 94 92 -1575 
99.3064 98.649 200.7 72 108 64 -1570 
99.3074 98.651 200.703 74 108 64 -1574 
99.3072 98.6503 200.704 76 102 82 -1577 
99.3077 98.651 200.705 78 98 84 -1576 
99.3089 98.6538 200.708 60 90 92 -1569 
99.3072 98.6505 200.708 48 82 110 -1565 
99.3072 98.6503 200.708 74 92 92 -1579 
99.3074 98.651 200.71 78 88 82 -1572 
99.3077 98.6515 200.712 100 100 70 -1574 
99.3094 98.6548 200.714 86 90 64 -1555 
99.3079 98.652 200.714 82 94 78 -1577 
99.3069 98.6495 200.714 72 88 86 -1573 
99.3087 98.6535 200.717 80 96 92 -1583 
99.3084 98.6525 200.718 80 98 78 -1615 
99.3077 98.6513 200.719 80 100 68 -1650 
99.3097 98.6553 200.722 86 102 70 -1663 
99.3099 98.6555 200.723 70 82 98 -1655 
99.3094 98.6548 200.724 80 100 60 -1669 
99.3102 98.656 200.726 86 96 52 -1661 
99.3109 98.6578 200.729 84 88 70 -1669 
99.3097 98.655 200.728 80 80 92 -1668 
99.3084 98.6528 200.728 86 94 80 -1664 
99.3114 98.6585 200.732 84 94 60 -1658 
99.3107 98.6573 200.733 90 92 76 -1628 
99.3092 98.6545 200.732 84 90 82 -1638 
99.3092 98.6543 200.734 72 96 62 -1648 
99.3099 98.6558 200.736 66 92 60 -1646 
99.3097 98.6555 200.737 70 90 78 -1660 
99.3119 98.6593 200.74 104 74 80 -1668 
99.3087 98.6535 200.738 86 90 84 -1674 
99.3097 98.655 200.74 132 76 58 -1663 
99.3102 98.6563 200.742 202 24 18 -1648 
99.3087 98.6533 200.742 252 0 0 -1598 
99.3074 98.6508 200.741 240 6 12 -1540 
99.3029 98.6418 200.743 192 216 220 -1611 
99.2984 98.6335 200.743 180 210 214 -1603 
99.2969 98.6305 200.744 192 218 222 -1609 
99.2969 98.6325 200.743 192 220 226 -1607 
99.3002 98.639 200.743 188 218 222 -1605 
99.3022 98.6425 200.743 190 214 218 -1615 
99.3027 98.6438 200.743 186 222 218 -1621 
99.3057 98.6495 200.744 176 190 174 -1599 
99.3064 98.6508 200.743 112 150 116 -1555 
99.3077 98.6535 200.744 98 96 78 -1517 
99.3087 98.6553 200.742 254 0 0 -1590 
99.3087 98.6555 200.742 240 6 4 -1633 
99.3102 98.658 200.742 164 50 28 -1651 
99.3094 98.657 200.74 86 86 78 -1658 
99.3092 98.6565 200.738 92 80 94 -1662 
99.3107 98.6593 200.739 78 88 82 -1656 
99.3089 98.6558 200.736 74 90 64 -1649 
99.3087 98.6553 200.734 86 106 58 -1653 
99.3087 98.6553 200.733 86 90 74 -1619 
99.3107 98.6593 200.734 84 84 84 -1616 
99.3097 98.6573 200.732 88 102 52 -1641 
99.3097 98.6573 200.73 84 100 56 -1651 
99.3089 98.656 200.729 80 88 78 -1655 
99.3077 98.6535 200.726 86 88 82 -1670 
99.3094 98.6568 200.727 86 92 56 -1669 
99.3087 98.6555 200.725 90 102 70 -1670 
99.3079 98.6538 200.722 78 74 68 -1672 
99.3089 98.6558 200.723 82 94 82 -1655 
99.3092 98.6563 200.721 74 88 64 -1654 
99.3069 98.652 200.717 90 98 74 -1629 
99.3082 98.6543 200.718 86 104 82 -1595 
99.3062 98.6505 200.714 74 94 72 -1579 
99.3067 98.6515 200.714 86 104 78 -1569 
99.3069 98.6518 200.712 76 90 90 -1561 
99.3064 98.6513 200.711 76 92 92 -1570 
99.3084 98.655 200.712 86 100 76 -1573 
99.3087 98.6553 200.711 76 90 80 -1573 
99.3072 98.6525 200.708 58 92 118 -1578 
99.3072 98.6525 200.707 78 104 100 -1584 
99.3072 98.6525 200.706 94 94 104 -1574 
99.3069 98.6518 200.704 80 82 112 -1580 
99.3077 98.6533 200.704 78 92 104 -1577 
99.3067 98.6513 200.702 74 106 64 -1570 
99.3082 98.6543 200.702 72 96 80 -1569 
99.3057 98.6495 200.698 82 90 100 -1597 
99.3059 98.65 200.697 94 90 70 -1578 
99.3072 98.6523 200.697 78 100 56 -1586 
99.3079 98.6538 200.697 78 100 44 -1584 
99.3064 98.6508 200.694 90 110 42 -1592 
99.3077 98.6533 200.694 68 86 90 -1587 
99.3072 98.6525 200.693 76 96 94 -1579 
99.3067 98.6513 200.691 92 90 62 -1576 
99.3057 98.6495 200.688 90 94 70 -1580 
99.3064 98.6508 200.688 70 86 78 -1589 
99.3062 98.6503 200.686 74 90 88 -1584 
99.3069 98.652 200.686 88 100 88 -1580 
99.3067 98.6515 200.684 80 100 98 -1592 
99.3077 98.653 200.684 78 102 102 -1567 
99.3087 98.655 200.684 66 98 76 -1578 
99.3072 98.652 200.681 58 96 70 -1569 
99.3072 98.6545 200.681 90 90 74 -1567 
99.3074 98.6548 200.682 70 104 72 -1565 
99.3072 98.6543 200.684 78 108 92 -1568 
99.3049 98.6503 200.682 64 94 92 -1583 
99.3062 98.6525 200.685 72 94 82 -1588 
99.3069 98.654 200.687 80 86 72 -1572 
99.3054 98.6513 200.686 74 90 80 -1589 
99.3054 98.651 200.688 68 100 76 -1584 
99.3067 98.6535 200.69 88 102 48 -1589 
99.3049 98.6503 200.689 88 96 62 -1589 
99.3082 98.6565 200.695 68 90 88 -1577 
99.3072 98.6545 200.695 64 94 92 -1588 
99.3082 98.6565 200.697 88 106 84 -1586 
99.3074 98.655 200.697 80 102 56 -1578 
99.3067 98.6533 200.697 80 102 56 -1583 
99.3077 98.6555 200.7 94 102 78 -1581 
99.3089 98.6578 200.703 82 88 86 -1569 
99.3054 98.651 200.7 76 92 86 -1587 
99.3067 98.6533 200.702 80 100 82 -1576 
99.3082 98.6565 200.706 78 96 90 -1574 
99.3054 98.6508 200.704 84 80 118 -1573 
99.3069 98.654 200.707 92 82 102 -1574 
99.3064 98.6528 200.707 92 108 100 -1580 
99.3072 98.6545 200.709 68 98 104 -1566 
99.3069 98.6538 200.71 84 88 82 -1578 
99.3047 98.6498 200.709 86 92 84 -1573 
99.3057 98.6515 200.711 72 96 96 -1568 
99.3077 98.6553 200.714 76 98 90 -1572 
99.3074 98.655 200.715 88 102 84 -1572 
99.3072 98.6543 200.716 74 94 66 -1582 
99.3072 98.6543 200.717 80 102 68 -1609 
99.3092 98.6585 200.721 90 106 66 -1642 
99.3079 98.656 200.721 82 88 86 -1670 
99.3052 98.6505 200.719 82 86 94 -1680 
99.3079 98.656 200.723 90 88 84 -1665 
99.3087 98.6573 200.725 90 90 70 -1668 
99.3089 98.6578 200.727 80 90 80 -1663 
99.3104 98.661 200.73 80 96 84 -1663 
99.3092 98.6583 200.73 78 94 76 -1666 
99.3089 98.658 200.73 84 94 78 -1662 
99.3079 98.6558 200.73 94 100 100 -1645 
99.3084 98.657 200.732 90 92 90 -1621 
99.3079 98.656 200.733 90 94 72 -1624 
99.3102 98.6605 200.737 82 90 56 -1631 
99.3094 98.6588 200.737 78 84 70 -1660 
99.3067 98.6533 200.735 86 100 74 -1661 
99.3089 98.6578 200.739 62 88 116 -1669 
99.3099 98.6598 200.741 106 76 88 -1657 
99.3092 98.6583 200.742 236 6 2 -1651 
99.3079 98.656 200.741 254 2 0 -1607 
99.3077 98.6553 200.742 218 14 14 -1561 
99.3067 98.6535 200.742 160 62 54 -1534 
99.2987 98.6378 200.744 192 222 226 -1614 
99.2954 98.6315 200.744 194 216 222 -1618 
99.2954 98.6338 200.743 184 212 216 -1594 
99.2982 98.6388 200.742 194 214 222 -1612 
99.3077 98.6575 200.742 254 2 0 -1587 
99.3087 98.6593 200.742 252 0 0 -1609 
99.3094 98.661 200.742 126 66 84 -1652 
99.3099 98.6615 200.741 66 90 118 -1661 
99.3079 98.658 200.738 76 96 72 -1652 
99.3099 98.6615 200.738 80 92 76 -1658 
99.3084 98.6588 200.736 84 86 82 -1654 
99.3079 98.6578 200.734 90 96 84 -1622 
99.3099 98.6615 200.735 90 90 102 -1631 
99.3089 98.6598 200.732 80 80 110 -1649 
99.3104 98.6625 200.733 80 94 88 -1655 
99.3074 98.6568 200.728 76 102 74 -1673 
99.3097 98.6613 200.73 82 110 84 -1661 
99.3079 98.6583 200.727 84 94 82 -1669 
99.3069 98.656 200.724 90 94 76 -1669 
99.3097 98.6613 200.726 78 82 100 -1670 
99.3087 98.6593 200.724 86 92 106 -1667 
99.3079 98.6578 200.722 84 94 88 -1657 
99.3082 98.6585 200.721 82 108 64 -1647 
99.3102 98.6623 200.722 74 102 62 -1624 
99.3062 98.6548 200.716 82 100 78 -1594 
99.3077 98.6573 200.717 86 96 90 -1575 
99.3057 98.6535 200.713 86 98 100 -1571 
99.3067 98.6558 200.713 84 98 106 -1569 
99.3064 98.655 200.712 88 86 108 -1565 
99.3059 98.6543 200.71 84 84 96 -1576 
99.3072 98.6565 200.71 76 104 94 -1567 
99.3074 98.6568 200.709 90 92 96 -1583 
99.3089 98.66 200.71 88 84 100 -1561 
99.3067 98.6555 200.706 86 100 100 -1573 
99.3064 98.6553 200.704 70 78 80 -1563 
99.3059 98.654 200.702 100 102 104 -1578 
99.3054 98.6533 200.701 86 94 90 -1585 
99.3059 98.6538 200.7 80 102 84 -1579 
99.3062 98.6543 200.699 84 102 90 -1574 
99.3072 98.6563 200.699 84 94 96 -1579 
99.3054 98.653 200.696 88 92 90 -1576 
99.3072 98.6565 200.697 90 88 88 -1563 
99.3052 98.6528 200.693 84 100 112 -1574 
99.3069 98.6558 200.694 84 102 94 -1563 
99.3059 98.654 200.691 92 100 66 -1590 
99.3057 98.6535 200.69 86 102 58 -1589 
99.3059 98.654 200.689 60 104 72 -1582 
99.3074 98.6568 200.689 80 102 74 -1586 
99.3052 98.6525 200.686 94 90 78 -1582 
99.3062 98.6548 200.686 82 98 92 -1570 
99.3049 98.652 200.683 70 102 90 -1575 
99.3057 98.6535 200.682 84 104 76 -1563 
99.3067 98.6558 200.682 92 90 94 -1573 
99.3067 98.6555 200.681 96 84 94 -1576 
99.3084 98.6588 200.681 70 94 98 -1574 
99.3054 98.6553 200.681 96 94 100 -1582 
99.3052 98.6548 200.682 88 94 88 -1564 
99.3057 98.6555 200.684 88 106 84 -1569 
99.3059 98.656 200.685 70 100 86 -1575 
99.3049 98.6543 200.686 80 96 100 -1578 
99.3064 98.6573 200.689 90 92 94 -1580 
99.3057 98.6558 200.689 80 104 74 -1576 
99.3064 98.6568 200.691 58 92 68 -1580 
99.3044 98.653 200.689 74 94 82 -1572 
99.3064 98.657 200.693 88 94 76 -1594 
99.3069 98.658 200.695 98 102 86 -1576 
99.3062 98.6563 200.695 104 112 122 -1568 
99.3064 98.657 200.697 70 72 90 -1568 
99.3049 98.6543 200.697 86 92 98 -1571 
99.3062 98.6568 200.699 84 94 104 -1561 
99.3067 98.6575 200.701 82 98 88 -1577 
99.3049 98.6543 200.7 88 106 82 -1585 
99.3054 98.6553 200.702 94 106 94 -1569 
99.3079 98.66 200.706 96 102 102 -1564 
99.3064 98.657 200.706 80 88 88 -1559 
99.3054 98.6553 200.706 88 106 90 -1571 
99.3059 98.656 200.708 92 106 96 -1581 
99.3052 98.6548 200.708 84 94 90 -1576 
99.3067 98.6575 200.711 78 94 84 -1567 
99.3062 98.6565 200.712 78 84 96 -1557 
99.3059 98.656 200.712 80 86 102 -1557 
99.3049 98.6543 200.712 78 90 90 -1579 
99.3072 98.6588 200.716 86 96 98 -1564 
99.3054 98.655 200.715 96 98 106 -1582 
99.3089 98.6618 200.721 76 80 86 -1622 
99.3074 98.659 200.72 68 100 72 -1641 
99.3062 98.6568 200.72 76 108 74 -1649 
99.3074 98.6588 200.722 88 100 80 -1670 
99.3077 98.6595 200.724 74 74 74 -1677 
99.3092 98.6623 200.727 70 80 112 -1671 
99.3084 98.661 200.727 80 96 84 -1674 
99.3094 98.6625 200.73 72 94 68 -1664 
99.3084 98.661 200.73 68 96 74 -1666 
99.3087 98.6613 200.731 70 90 92 -1661 
99.3102 98.6643 200.734 78 84 98 -1661 
99.3097 98.663 200.734 80 82 94 -1660 
99.3079 98.66 200.734 70 72 92 -1635 
99.3094 98.6625 200.737 76 84 94 -1645 
99.3084 98.6608 200.737 80 92 88 -1660 
99.3104 98.6645 200.74 80 100 80 -1656 
99.3084 98.661 200.739 76 94 80 -1667 
99.3082 98.6605 200.74 134 56 70 -1662 
99.3077 98.6593 200.74 184 28 34 -1630 
99.3092 98.6623 200.744 254 2 0 -1607 
99.3069 98.658 200.742 252 0 4 -1555 
99.3057 98.6555 200.743 80 104 82 -1536 
99.3042 98.6528 200.744 170 198 184 -1596 
99.3007 98.6458 200.743 194 214 214 -1612 
99.2979 98.6403 200.744 194 222 226 -1609 
99.2939 98.6328 200.743 192 220 224 -1612 
99.2957 98.6383 200.743 184 212 216 -1599 
99.2977 98.6423 200.743 190 210 218 -1602 
99.3002 98.6468 200.744 196 216 218 -1601 
99.3002 98.647 200.743 198 216 218 -1604 
99.3052 98.6568 200.744 80 130 100 -1560 
99.3054 98.657 200.742 94 106 94 -1527 
99.3074 98.661 200.744 218 16 18 -1530 
99.3069 98.6598 200.742 254 2 0 -1562 
99.3067 98.6595 200.74 228 12 6 -1622 
99.3077 98.6615 200.74 198 28 34 -1657 
99.3092 98.6643 200.741 88 94 88 -1657 
99.3089 98.6635 200.74 80 98 82 -1658 
99.3094 98.6648 200.739 76 96 80 -1656 
99.3089 98.6638 200.737 76 86 90 -1669 
99.3059 98.658 200.732 80 86 104 -1659 
99.3067 98.6598 200.732 82 90 82 -1666 
99.3092 98.664 200.734 78 88 80 -1671 
99.3089 98.6638 200.732 82 92 98 -1661 
99.3092 98.6643 200.732 84 100 90 -1659 
99.3077 98.6615 200.729 80 98 72 -1666 
99.3109 98.6675 200.731 74 90 80 -1673 
99.3074 98.661 200.726 70 88 94 -1663 
99.3067 98.6593 200.723 84 78 76 -1670 
99.3082 98.6625 200.725 94 98 82 -1670 
99.3067 98.6593 200.721 78 104 72 -1665 
99.3079 98.6615 200.721 72 98 82 -1655 
99.3077 98.6615 200.72 84 94 92 -1624 
99.3077 98.6613 200.719 88 98 92 -1597 
99.3054 98.6573 200.715 74 92 76 -1584 
99.3054 98.6573 200.714 78 96 86 -1573 
99.3062 98.6585 200.713 78 92 94 -1561 
99.3062 98.6588 200.712 80 90 96 -1565 
99.3064 98.659 200.712 82 86 70 -1566 
99.3059 98.6578 200.71 88 92 82 -1562 
99.3054 98.657 200.708 80 94 74 -1572 
99.3072 98.6603 200.709 86 102 76 -1576 
99.3047 98.6558 200.704 72 86 68 -1559 
99.3067 98.6593 200.706 76 88 94 -1563 
99.3052 98.6568 200.703 78 98 92 -1574 
99.3072 98.6608 200.704 82 98 68 -1581 
99.3069 98.66 200.702 82 96 72 -1566 
99.3052 98.6568 200.699 76 96 92 -1570 
99.3064 98.659 200.699 72 90 90 -1573 
99.3079 98.6618 200.7 56 90 90 -1568 
99.3044 98.6553 200.694 76 108 66 -1585 
99.3062 98.6588 200.695 86 86 68 -1582 
99.3052 98.6565 200.693 70 96 108 -1578 
99.3049 98.656 200.691 22 64 78 -1578 
99.3059 98.658 200.691 68 88 62 -1576 
99.3067 98.6598 200.691 86 98 76 -1573 
99.3037 98.6538 200.686 82 94 90 -1588 
99.3067 98.6595 200.689 70 84 92 -1582 
99.3062 98.6585 200.686 78 94 92 -1587 
99.3062 98.6585 200.685 72 94 90 -1565 
99.3054 98.6573 200.683 74 98 96 -1562 
99.3059 98.6583 200.683 84 96 82 -1568 
99.3067 98.6613 200.682 88 96 86 -1574 
99.3062 98.6605 200.683 86 102 48 -1572 
99.3059 98.6603 200.684 82 102 72 -1555 
99.3054 98.659 200.684 78 98 86 -1563 
99.3057 98.6598 200.686 68 94 78 -1572 
99.3037 98.656 200.685 76 94 84 -1582 
99.3047 98.6578 200.687 94 98 102 -1574 
99.3049 98.658 200.689 96 100 110 -1576 
99.3064 98.6613 200.692 78 94 90 -1571 
99.3062 98.6608 200.693 86 96 94 -1574 
99.3059 98.66 200.693 74 86 102 -1569 
99.3054 98.6593 200.694 82 96 106 -1575 
99.3062 98.6605 200.696 80 92 90 -1577 
99.3069 98.6615 200.698 66 90 74 -1576 
99.3059 98.6603 200.699 64 98 84 -1577 
99.3059 98.6603 200.7 76 102 104 -1572 
99.3052 98.659 200.7 88 104 94 -1568 
99.3049 98.658 200.701 84 106 52 -1577 
99.3064 98.661 200.704 82 102 62 -1576 
99.3064 98.661 200.705 90 102 94 -1578 
99.3062 98.6608 200.706 74 100 96 -1570 
99.3044 98.6573 200.705 74 106 88 -1573 
99.3064 98.6613 200.709 84 108 94 -1575 
99.3062 98.6608 200.71 78 102 88 -1571 
99.3047 98.6578 200.709 98 102 86 -1576 
99.3039 98.6563 200.71 104 94 84 -1572 
99.3062 98.6605 200.713 76 86 112 -1564 
99.3062 98.6605 200.714 78 98 86 -1574 
99.3047 98.6578 200.714 78 102 78 -1583 
99.3054 98.659 200.716 76 96 60 -1599 
99.3057 98.6595 200.717 76 94 56 -1627 
99.3084 98.6645 200.722 86 102 70 -1630 
99.3087 98.665 200.723 78 96 88 -1659 
99.3094 98.6665 200.725 82 106 92 -1670 
99.3074 98.6628 200.724 70 98 80 -1675 
99.3077 98.6633 200.726 78 92 92 -1663 
99.3069 98.6618 200.726 94 76 102 -1680 
99.3087 98.665 200.729 76 82 90 -1659 
99.3092 98.6663 200.731 92 82 102 -1663 
99.3074 98.6628 200.73 84 100 100 -1676 
99.3062 98.6605 200.73 70 100 72 -1666 
99.3087 98.665 200.734 86 92 64 -1668 
99.3054 98.659 200.732 92 94 98 -1664 
99.3074 98.6628 200.735 64 98 96 -1666 
99.3074 98.6628 200.736 76 98 70 -1663 
99.3049 98.6583 200.735 48 96 102 -1670 
99.3064 98.661 200.738 52 88 100 -1679 
99.3084 98.6648 200.741 116 74 78 -1661 
99.3074 98.6628 200.741 240 4 10 -1639 
99.3079 98.6638 200.743 252 0 0 -1601 
99.3074 98.663 200.743 254 4 0 -1538 
99.3064 98.6608 200.743 136 54 46 -1516 
99.3052 98.6585 200.743 98 114 104 -1539 
99.3014 98.6518 200.743 184 204 224 -1601 
99.3014 98.6513 200.743 192 212 214 -1615 
99.2999 98.6485 200.743 196 218 210 -1617 
99.2987 98.6463 200.743 188 218 222 -1604 
99.2927 98.6345 200.743 196 220 222 -1608 
99.2927 98.6365 200.743 190 214 218 -1603 
99.3059 98.662 200.744 120 64 58 -1528 
99.3052 98.661 200.742 202 28 24 -1535 
99.3077 98.665 200.742 204 26 16 -1630 
99.3072 98.6643 200.74 130 54 56 -1659 
99.3089 98.668 200.742 56 96 96 -1667 
99.3064 98.6628 200.737 74 86 62 -1665 
99.3077 98.6653 200.738 82 88 50 -1677 
99.3084 98.6668 200.737 52 90 86 -1675 
99.3087 98.6673 200.736 76 88 100 -1664 
99.3064 98.6625 200.732 94 84 92 -1670 
99.3074 98.665 200.732 80 92 90 -1679 
99.3074 98.6648 200.731 78 88 98 -1666 
99.3082 98.6663 200.731 74 84 90 -1662 
99.3087 98.667 200.73 66 90 86 -1677 
99.3072 98.664 200.727 80 86 88 -1667 
99.3072 98.6643 200.726 68 84 74 -1673 
99.3072 98.6645 200.725 80 98 86 -1667 
99.3082 98.666 200.725 78 88 90 -1670 
99.3079 98.6655 200.723 86 90 94 -1661 
99.3067 98.6633 200.721 80 96 64 -1657 
99.3047 98.6598 200.717 78 98 66 -1629 
99.3052 98.6608 200.717 80 94 82 -1598 
99.3047 98.6595 200.714 90 96 92 -1592 
99.3064 98.6628 200.715 86 92 84 -1567 
99.3047 98.66 200.712 80 86 102 -1571 
99.3064 98.663 200.713 94 98 68 -1559 
99.3059 98.6618 200.712 78 92 72 -1576 
99.3047 98.6598 200.709 80 96 86 -1564 
99.3049 98.6605 200.708 74 96 86 -1570 
99.3044 98.6593 200.706 70 106 78 -1575 
99.3054 98.661 200.706 74 106 90 -1570 
99.3064 98.6628 200.706 90 100 102 -1591 
99.3049 98.6603 200.703 92 106 82 -1580 
99.3062 98.6623 200.703 86 100 66 -1570 
99.3057 98.6615 200.702 86 96 82 -1563 
99.3054 98.661 200.7 80 96 88 -1575 
99.3039 98.6585 200.697 76 96 86 -1581 
99.3047 98.6595 200.696 80 102 80 -1576 
99.3037 98.6578 200.694 88 104 94 -1581 
99.3059 98.6618 200.695 82 92 100 -1579 
99.3047 98.6595 200.693 86 92 100 -1579 
99.3069 98.664 200.695 84 96 94 -1571 
99.3052 98.6605 200.691 76 86 78 -1574 
99.3042 98.659 200.689 88 90 78 -1575 
99.3054 98.661 200.689 92 96 78 -1572 
99.3052 98.6605 200.687 78 102 80 -1565 
99.3049 98.6605 200.686 72 92 70 -1571 
99.3064 98.663 200.686 78 96 80 -1573 
99.3057 98.6615 200.684 86 100 64 -1565 
99.3064 98.6628 200.684 92 106 62 -1570 
99.3059 98.662 200.681 96 102 98 -1582 
99.3069 98.664 200.681 90 98 80 -1577 
99.3047 98.6618 200.682 78 100 74 -1575 
99.3054 98.663 200.684 82 98 64 -1581 
99.3052 98.6623 200.684 94 100 66 -1571 
99.3039 98.6605 200.684 82 92 64 -1578 
99.3047 98.6615 200.686 90 78 78 -1577 
99.3062 98.6643 200.689 100 90 92 -1571 
99.3042 98.6608 200.688 86 90 60 -1573 
99.3047 98.6615 200.69 84 94 32 -1575 
99.3037 98.6595 200.69 96 104 68 -1586 
99.3052 98.6625 200.693 84 94 86 -1574 
99.3044 98.6613 200.693 86 94 90 -1574 
99.3049 98.662 200.695 84 88 92 -1576 
99.3029 98.6583 200.694 84 98 102 -1573 
99.3062 98.6645 200.699 86 102 90 -1578 
99.3062 98.6643 200.7 94 92 78 -1578 
99.3059 98.664 200.701 110 80 82 -1574 
99.3044 98.661 200.701 102 100 62 -1571 
99.3037 98.66 200.701 94 98 58 -1578 
99.3064 98.665 200.706 88 96 74 -1578 
99.3064 98.665 200.707 76 90 102 -1576 
99.3059 98.6638 200.707 70 90 96 -1573 
99.3047 98.6615 200.707 74 98 82 -1582 
99.3042 98.6608 200.708 76 98 80 -1577 
99.3042 98.6608 200.709 76 88 78 -1576 
99.3067 98.6653 200.713 80 90 74 -1570 
99.3039 98.6603 200.711 78 100 54 -1567 
99.3064 98.6648 200.715 84 88 68 -1568 
99.3059 98.6638 200.715 88 82 56 -1575 
99.3059 98.6638 200.717 104 78 104 -1586 
99.3054 98.6628 200.717 92 74 122 -1617 
99.3069 98.6658 200.72 84 90 114 -1641 
99.3059 98.6638 200.721 84 100 64 -1659 
99.3072 98.6665 200.723 102 92 88 -1667 
99.3074 98.6665 200.725 80 62 84 -1660 
99.3079 98.668 200.727 84 82 76 -1672 
99.3082 98.668 200.728 82 90 66 -1652 
99.3079 98.6678 200.729 72 88 72 -1672 
99.3079 98.6678 200.73 72 92 80 -1670 
99.3069 98.6658 200.73 66 94 90 -1674 
99.3089 98.6698 200.734 76 84 96 -1665 
99.3067 98.6653 200.732 94 80 106 -1666 
99.3074 98.6665 200.734 82 72 106 -1672 
99.3077 98.6675 200.736 92 88 114 -1659 
99.3067 98.6653 200.736 68 86 88 -1675 
99.3059 98.664 200.736 86 90 64 -1671 
99.3079 98.6678 200.74 90 94 62 -1665 
99.3084 98.6688 200.742 64 90 84 -1667 
99.3077 98.667 200.742 162 34 34 -1662 
99.3052 98.6625 200.74 252 2 0 -1627 
99.3069 98.6655 200.743 254 2 0 -1570 
99.3062 98.6645 200.743 234 14 16 -1521 
99.3042 98.661 200.744 86 116 110 -1566 
99.3032 98.6585 200.743 174 180 170 -1594 
99.2989 98.6508 200.744 180 218 218 -1597 
99.2979 98.6485 200.743 192 206 220 -1603 
99.2962 98.6453 200.743 196 214 218 -1614 
99.2952 98.6433 200.743 190 214 218 -1599 
99.2939 98.641 200.743 190 214 218 -1604 
99.2917 98.6368 200.744 192 216 216 -1574 
99.2907 98.6345 200.744 200 222 222 -1593 
99.2887 98.631 200.743 200 222 222 -1600 
99.2884 98.6305 200.744 184 208 210 -1604 
99.2874 98.6308 200.744 188 212 214 -1580 
99.2919 98.6393 200.743 190 216 218 -1594 
99.2959 98.647 200.744 194 214 216 -1604 
99.3004 98.6553 200.743 180 214 200 -1596 
99.3017 98.6578 200.743 172 184 180 -1598 
99.3044 98.6628 200.743 94 82 82 -1531 
99.3054 98.665 200.743 222 12 18 -1544 
99.3067 98.6673 200.742 226 6 10 -1627 
99.3069 98.6678 200.741 106 76 76 -1667 
99.3067 98.6673 200.739 74 92 80 -1671 
99.3074 98.6688 200.739 70 92 72 -1660 
99.3067 98.6673 200.737 80 80 82 -1673 
99.3072 98.6685 200.736 72 76 96 -1669 
99.3059 98.666 200.734 78 84 100 -1666 
99.3067 98.6675 200.734 86 82 88 -1669 
99.3082 98.6703 200.734 76 78 86 -1667 
99.3037 98.6615 200.727 70 90 94 -1674 
99.3074 98.6688 200.731 56 88 84 -1671 
99.3059 98.666 200.728 78 86 82 -1674 
99.3062 98.6665 200.727 84 88 74 -1672 
99.3057 98.6653 200.725 94 98 76 -1667 
99.3067 98.6673 200.725 94 80 90 -1672 
99.3074 98.6688 200.725 102 90 86 -1663 
99.3094 98.6725 200.726 82 96 66 -1663 
99.3067 98.6673 200.721 78 102 80 -1646 
99.3059 98.666 200.719 96 80 120 -1634 
99.3059 98.666 200.718 100 76 94 -1597 
99.3052 98.6643 200.716 106 88 70 -1587 
99.3052 98.6645 200.715 94 98 72 -1573 
99.3059 98.6658 200.714 88 102 70 -1572 
99.3042 98.6628 200.712 88 96 98 -1581 
99.3042 98.6623 200.71 74 92 84 -1567 
99.3052 98.6645 200.71 76 88 78 -1569 
99.3037 98.6615 200.707 88 94 100 -1585 
99.3042 98.6625 200.706 80 86 98 -1575 
99.3037 98.6618 200.705 80 104 94 -1577 
99.3034 98.6615 200.703 90 106 94 -1584 
99.3054 98.665 200.704 96 98 68 -1572 
99.3034 98.6615 200.701 104 104 68 -1569 
99.3052 98.6645 200.702 100 74 78 -1586 
99.3054 98.665 200.701 86 94 62 -1576 
99.3044 98.6633 200.698 80 88 74 -1576 
99.3037 98.6618 200.696 84 90 108 -1578 
99.3042 98.6625 200.695 80 90 100 -1563 
99.3049 98.6643 200.695 76 94 72 -1575 
99.3057 98.6653 200.695 86 96 78 -1586 
99.3049 98.6643 200.693 96 102 64 -1580 
99.3042 98.6625 200.691 76 94 32 -1570 
99.3034 98.6615 200.689 86 100 44 -1576 
99.3057 98.6653 200.69 104 84 96 -1582 
99.3054 98.6653 200.689 100 88 90 -1566 
99.3042 98.6628 200.686 82 88 80 -1572 
99.3047 98.6635 200.685 88 92 74 -1569 
99.3037 98.6615 200.682 82 98 72 -1575 
99.3037 98.6618 200.682 82 104 82 -1569 
99.3044 98.6628 200.681 88 88 80 -1573 
99.3064 98.6668 200.682 94 84 78 -1567 
99.3059 98.6678 200.683 90 78 88 -1567 
99.3034 98.6633 200.681 88 106 90 -1576 
99.3037 98.6638 200.683 78 98 74 -1578 
99.3034 98.6633 200.684 88 96 86 -1567 
99.3022 98.6613 200.683 86 84 92 -1580 
99.3037 98.6635 200.686 94 84 110 -1573 
99.3037 98.6638 200.688 102 92 86 -1580 
99.3047 98.6655 200.69 96 92 78 -1573 
99.3027 98.6618 200.689 76 84 98 -1572 
99.3049 98.6663 200.693 78 80 84 -1572 
99.3044 98.665 200.693 98 92 76 -1574 
99.3039 98.664 200.694 84 100 64 -1576 
99.3032 98.6625 200.694 68 96 68 -1567 
99.3039 98.664 200.696 78 90 76 -1570 
99.3042 98.6645 200.698 88 90 86 -1585 
99.3042 98.6645 200.699 78 96 74 -1573 
99.3042 98.6645 200.7 82 110 70 -1588 
99.3044 98.6653 200.702 92 92 84 -1561 
99.3044 98.665 200.703 82 98 106 -1565 
99.3044 98.665 200.704 74 94 100 -1584 
99.3027 98.6618 200.704 82 106 76 -1576 
99.3042 98.6645 200.706 86 108 72 -1578 
99.3042 98.6648 200.708 88 90 96 -1570 
99.3044 98.665 200.709 88 96 106 -1570 
99.3044 98.665 200.71 78 98 96 -1567 
99.3054 98.667 200.712 80 102 102 -1574 
99.3039 98.664 200.712 74 82 92 -1574 
99.3042 98.6648 200.714 96 92 78 -1576 
99.3017 98.66 200.712 82 88 86 -1583 
99.3052 98.6663 200.717 86 88 86 -1588 
99.3049 98.666 200.718 82 82 82 -1622 
99.3079 98.6718 200.723 80 76 96 -1652 
99.3062 98.6683 200.722 74 96 84 -1658 
99.3082 98.672 200.725 82 94 72 -1668 
99.3057 98.6678 200.724 92 84 74 -1669 
99.3062 98.6685 200.725 92 92 84 -1661 
99.3064 98.669 200.727 90 100 76 -1669 
99.3074 98.671 200.73 94 90 86 -1660 
99.3052 98.6665 200.728 84 80 98 -1668 
99.3089 98.6735 200.734 78 84 98 -1659 
99.3067 98.6695 200.732 78 90 104 -1658 
99.3077 98.671 200.734 80 84 88 -1655 
99.3077 98.6715 200.736 90 96 82 -1661 
99.3049 98.666 200.734 78 92 100 -1672 
99.3047 98.6658 200.735 86 80 90 -1666 
99.3062 98.6683 200.738 90 78 76 -1655 
99.3054 98.6673 200.738 52 94 92 -1665 
99.3067 98.6695 200.74 74 88 94 -1659 
99.3072 98.6705 200.742 140 62 66 -1640 
99.3062 98.6685 200.742 248 0 6 -1605 
99.3017 98.66 200.743 184 188 200 -1602 
99.2954 98.648 200.743 180 212 230 -1593 
99.2949 98.6473 200.744 196 218 216 -1595 
99.2927 98.6428 200.743 194 218 220 -1587 
99.2909 98.6393 200.742 196 220 222 -1590 
99.2864 98.631 200.744 184 208 212 -1578 
99.2884 98.6365 200.743 194 218 220 -1577 
99.2894 98.6385 200.743 188 212 214 -1574 
99.2904 98.6405 200.743 200 224 226 -1569 
99.2934 98.646 200.743 194 218 218 -1578 
99.2964 98.652 200.743 182 224 220 -1597 
99.2979 98.6548 200.742 196 210 212 -1601 
99.3009 98.6608 200.743 184 200 206 -1602 
99.3044 98.6673 200.743 180 32 34 -1535 
99.3039 98.6663 200.741 254 2 0 -1573 
99.3042 98.6668 200.74 254 2 0 -1619 
99.3059 98.67 200.741 120 58 56 -1657 
99.3067 98.6715 200.74 74 96 84 -1668 
99.3047 98.6675 200.737 70 102 82 -1669 
99.3042 98.6665 200.735 86 86 68 -1670 
99.3069 98.6718 200.737 70 82 72 -1662 
99.3062 98.6705 200.735 84 102 82 -1659 
99.3054 98.6693 200.733 78 92 70 -1659 
99.3064 98.6708 200.733 76 88 100 -1660 
99.3062 98.6703 200.732 70 82 112 -1665 
99.3064 98.6708 200.73 76 76 94 -1670 
99.3069 98.6718 200.73 94 88 88 -1673 
99.3047 98.6675 200.726 88 94 74 -1654 
99.3069 98.6718 200.727 82 94 64 -1662 
99.3047 98.6675 200.724 100 98 76 -1666 
99.3077 98.6733 200.726 88 90 84 -1663 
99.3067 98.6713 200.723 62 82 76 -1661 
99.3069 98.672 200.723 94 106 100 -1661 
99.3052 98.6685 200.719 88 94 92 -1639 
99.3044 98.667 200.717 82 88 92 -1618 
99.3052 98.6685 200.717 80 88 106 -1577 
99.3042 98.6665 200.714 92 88 76 -1579 
99.3032 98.6645 200.712 96 96 86 -1584 
99.3039 98.6658 200.712 68 92 84 -1580 
99.3039 98.666 200.711 58 92 82 -1567 
99.3024 98.6633 200.708 72 96 90 -1565 
99.3042 98.6665 200.709 76 92 86 -1564 
99.3034 98.665 200.706 88 102 82 -1570 
99.3032 98.6645 200.705 84 104 84 -1582 
99.3049 98.668 200.706 72 96 104 -1571 
99.3047 98.6678 200.705 74 94 106 -1577 
99.3057 98.6693 200.704 90 94 80 -1578 
99.3029 98.6643 200.7 80 108 78 -1578 
99.3054 98.6688 200.702 80 96 78 -1574 
99.3037 98.6658 200.699 96 96 78 -1583 
99.3034 98.665 200.697 88 94 76 -1577 
99.3054 98.6693 200.698 72 98 88 -1577 
99.3024 98.6635 200.693 74 94 70 -1573 
99.3027 98.6638 200.692 88 94 60 -1592 
99.3044 98.6673 200.693 92 80 118 -1568 
99.3034 98.6653 200.691 82 78 122 -1571 
99.3034 98.665 200.689 86 96 62 -1590 
99.3034 98.6653 200.688 100 98 74 -1571 
99.3024 98.6633 200.686 94 78 86 -1586 
99.3047 98.6678 200.688 92 84 98 -1573 
99.3034 98.6653 200.685 92 100 88 -1574 
99.3039 98.666 200.684 76 92 64 -1580 
99.3049 98.6683 200.684 80 98 80 -1577 
99.3039 98.6683 200.681 80 78 88 -1570 
99.3027 98.6655 200.681 70 84 94 -1583 
99.3047 98.6693 200.684 76 98 106 -1582 
99.3039 98.668 200.685 94 96 82 -1572 
99.3052 98.6705 200.688 88 98 70 -1571 
99.3029 98.6663 200.686 86 98 98 -1579 
99.3037 98.6675 200.688 94 90 112 -1585 
99.3027 98.6658 200.688 94 100 74 -1577 
99.3044 98.669 200.691 94 102 56 -1565 
99.3029 98.6663 200.691 90 92 72 -1583 
99.3049 98.67 200.695 90 88 94 -1565 
99.3024 98.6653 200.693 86 96 72 -1572 
99.3037 98.6673 200.695 84 100 92 -1574 
99.3047 98.6695 200.698 72 90 100 -1574 
99.3034 98.6673 200.698 86 88 82 -1583 
99.3042 98.6683 200.699 100 82 90 -1579 
99.3049 98.6698 200.702 98 78 98 -1569 
99.3027 98.6655 200.7 78 108 78 -1583 
99.3034 98.667 200.702 82 98 60 -1576 
99.3037 98.6673 200.704 96 104 62 -1581 
99.3034 98.6673 200.705 84 92 72 -1573 
99.3037 98.6673 200.706 82 94 102 -1569 
99.3044 98.669 200.708 92 102 100 -1580 
99.3039 98.668 200.709 86 102 98 -1576 
99.3037 98.6675 200.71 66 104 92 -1566 
99.3032 98.6665 200.711 62 98 86 -1564 
99.3037 98.6675 200.712 82 108 92 -1572 
99.3039 98.6683 200.714 76 90 76 -1578 
99.3029 98.666 200.714 94 90 76 -1581 
99.3037 98.6673 200.716 80 92 108 -1588 
99.3052 98.6705 200.719 84 92 104 -1600 
99.3059 98.672 200.721 86 88 94 -1626 
99.3082 98.676 200.725 74 88 82 -1649 
99.3037 98.6675 200.721 84 104 98 -1682 
99.3059 98.6718 200.725 88 94 84 -1666 
99.3062 98.6725 200.726 98 92 74 -1663 
99.3044 98.669 200.725 74 88 58 -1665 
99.3064 98.6728 200.729 84 98 72 -1669 
99.3054 98.6708 200.729 86 88 82 -1668 
99.3064 98.673 200.731 80 90 102 -1670 
99.3057 98.6713 200.732 58 80 104 -1660 
99.3052 98.6703 200.732 80 90 92 -1659 
99.3047 98.6695 200.733 90 94 72 -1669 
99.3062 98.6725 200.736 78 104 84 -1664 
99.3054 98.6708 200.736 76 98 86 -1663 
99.3057 98.6713 200.737 80 88 64 -1666 
99.3047 98.6693 200.738 74 98 72 -1671 
99.3064 98.6728 200.741 72 104 80 -1650 
99.3054 98.671 200.741 164 48 34 -1644 
99.3059 98.6718 200.742 238 6 0 -1611 
99.3019 98.6643 200.743 98 120 110 -1590 
99.2994 98.66 200.743 192 220 228 -1601 
99.2977 98.6565 200.744 196 224 226 -1597 
99.2962 98.6535 200.743 178 216 212 -1595 
99.2919 98.6455 200.742 186 210 210 -1586 
99.2917 98.6448 200.743 184 208 210 -1579 
99.2904 98.6425 200.743 190 214 218 -1563 
99.2889 98.6395 200.743 194 218 224 -1572 
99.2862 98.6343 200.743 184 210 214 -1581 
99.2849 98.6318 200.742 190 216 220 -1583 
99.2839 98.632 200.744 182 208 212 -1582 
99.2839 98.6323 200.743 188 212 218 -1571 
99.2854 98.6353 200.743 184 212 214 -1569 
99.2882 98.6403 200.743 192 214 220 -1561 
99.2884 98.6405 200.742 196 218 224 -1568 
99.2902 98.6443 200.742 190 214 216 -1575 
99.2914 98.6463 200.743 190 216 218 -1577 
99.2972 98.6575 200.742 196 216 222 -1607 
99.3027 98.6678 200.742 70 100 86 -1524 
99.3042 98.6708 200.743 212 16 18 -1528 
99.3062 98.6745 200.743 224 10 0 -1619 
99.3047 98.6715 200.74 144 52 40 -1655 
99.3049 98.672 200.739 62 92 80 -1668 
99.3044 98.6713 200.738 76 98 76 -1658 
99.3062 98.6745 200.738 66 100 74 -1678 
99.3054 98.673 200.736 64 98 66 -1670 
99.3067 98.6755 200.736 104 98 60 -1661 
99.3072 98.6763 200.736 92 88 78 -1649 
99.3062 98.6743 200.733 80 88 106 -1668 
99.3052 98.6725 200.731 74 80 102 -1660 
99.3047 98.6718 200.729 72 82 86 -1659 
99.3047 98.6715 200.728 78 100 72 -1662 
99.3052 98.6725 200.727 76 94 68 -1664 
99.3062 98.6743 200.727 82 94 74 -1670 
99.3062 98.6743 200.726 72 96 70 -1664 
99.3059 98.674 200.725 54 92 70 -1659 
99.3057 98.6738 200.723 78 104 100 -1659 
99.3069 98.6758 200.723 84 94 92 -1656 
99.3057 98.6733 200.721 82 94 86 -1623 
99.3052 98.6725 200.719 72 94 84 -1605 
99.3034 98.6693 200.716 82 92 56 -1586 
99.3032 98.6685 200.714 72 92 100 -1573 
99.3034 98.6693 200.713 84 104 108 -1575 
99.3032 98.6688 200.712 80 102 100 -1574 
99.3052 98.6725 200.713 70 100 114 -1567 
99.3027 98.6678 200.709 60 90 102 -1569 
99.3029 98.6683 200.708 84 102 100 -1570 
99.3029 98.668 200.707 82 92 104 -1568 
99.3039 98.6703 200.707 98 94 76 -1566 
99.3034 98.669 200.705 102 102 50 -1574 
99.3037 98.6695 200.704 78 104 52 -1572 
99.3042 98.6705 200.704 72 100 60 -1576 
99.3037 98.6695 200.702 88 90 82 -1587 
99.3044 98.671 200.701 96 80 92 -1583 
99.3034 98.669 200.699 86 92 88 -1588 
99.3027 98.6675 200.697 80 100 96 -1583 
99.3022 98.6668 200.695 80 102 78 -1593 
99.3029 98.6683 200.695 62 90 44 -1584 
99.3052 98.6725 200.696 82 98 74 -1577 
99.3029 98.668 200.692 86 88 72 -1580 
99.3022 98.6668 200.69 94 102 54 -1579 
99.3019 98.6663 200.689 92 102 78 -1585 
99.3027 98.6678 200.688 82 96 108 -1572 
99.3017 98.6658 200.686 68 98 88 -1579 
99.3014 98.6653 200.684 70 100 70 -1571 
99.3017 98.6655 200.683 96 94 86 -1572 
99.3037 98.6698 200.684 80 100 104 -1571 
99.3024 98.667 200.682 74 90 84 -1585 
99.3054 98.6728 200.683 74 90 90 -1569 
99.3042 98.6725 200.682 70 94 94 -1576 
99.3022 98.6688 200.682 78 92 72 -1575 
99.3027 98.6698 200.684 70 90 66 -1578 
99.3017 98.6678 200.684 88 96 70 -1585 
99.3019 98.6685 200.686 78 94 66 -1584 
99.3037 98.6715 200.689 72 100 74 -1570 
99.3044 98.673 200.691 70 96 70 -1571 
99.3017 98.6678 200.689 82 98 80 -1588 
99.3039 98.672 200.693 86 104 58 -1584 
99.3029 98.67 200.693 86 96 68 -1581 
99.3029 98.6703 200.694 76 90 86 -1584 
99.3029 98.6703 200.695 70 106 70 -1573 
99.3032 98.6708 200.697 64 112 52 -1590 
99.3037 98.6715 200.699 68 92 76 -1583 
99.3032 98.6705 200.699 78 94 90 -1586 
99.3034 98.6713 200.701 90 86 82 -1583 
99.3029 98.6703 200.701 88 80 72 -1573 
99.3022 98.6688 200.702 86 106 74 -1582 
99.3032 98.6705 200.704 70 104 46 -1569 
99.3029 98.6703 200.705 92 108 54 -1576 
99.3039 98.6723 200.708 90 82 74 -1567 
99.3034 98.6713 200.708 88 84 98 -1573 
99.3032 98.6708 200.709 78 90 82 -1578 
99.3029 98.67 200.71 66 88 86 -1569 
99.3027 98.6695 200.711 74 92 114 -1563 
99.3032 98.6708 200.712 86 96 102 -1569 
99.3032 98.6708 200.714 84 88 90 -1571 
99.3034 98.671 200.715 76 90 106 -1580 
99.3019 98.6685 200.714 72 92 80 -1587 
99.3037 98.6715 200.718 70 92 86 -1602 
99.3059 98.676 200.722 84 96 92 -1626 
99.3019 98.6685 200.718 90 104 112 -1655 
99.3052 98.6745 200.723 70 104 104 -1673 
99.3072 98.6785 200.727 60 108 96 -1663 
99.3044 98.6733 200.725 64 96 74 -1667 
99.3054 98.675 200.727 86 104 92 -1665 
99.3047 98.6733 200.727 78 94 82 -1680 
99.3044 98.673 200.728 68 96 68 -1662 
99.3052 98.6745 200.73 76 104 88 -1676 
99.3044 98.673 200.73 88 80 112 -1669 
99.3052 98.6748 200.733 92 72 110 -1663 
99.3042 98.6725 200.733 86 86 78 -1676 
99.3049 98.674 200.735 92 96 62 -1662 
99.3062 98.6765 200.738 82 100 60 -1652 
99.3027 98.6698 200.734 58 92 62 -1668 
99.3047 98.6735 200.738 74 108 76 -1662 
99.3059 98.6758 200.741 68 88 80 -1668 
99.3037 98.6715 200.739 112 76 78 -1662 
99.3017 98.6678 200.742 122 72 76 -1553 
99.2947 98.6545 200.743 186 206 214 -1587 
99.2914 98.6483 200.743 184 212 214 -1581 
99.2892 98.644 200.742 194 218 222 -1578 
99.2897 98.6453 200.744 188 212 216 -1555 
99.2882 98.6425 200.743 192 214 220 -1560 
99.2869 98.64 200.743 192 216 222 -1555 
99.2864 98.639 200.744 190 218 222 -1539 
99.2854 98.637 200.744 190 220 222 -1548 
99.2827 98.632 200.743 188 212 218 -1557 
99.2827 98.634 200.743 190 218 220 -1536 
99.2864 98.6408 200.744 194 220 224 -1521 
99.2884 98.6448 200.744 192 216 222 -1575 
99.2914 98.6503 200.743 192 220 224 -1579 
99.2937 98.655 200.744 184 212 222 -1585 
99.2977 98.6623 200.743 190 206 226 -1607 
99.3017 98.67 200.743 124 132 116 -1560 
99.3039 98.674 200.743 186 32 30 -1524 
99.3054 98.677 200.743 250 0 2 -1629 
