# .PCD v0.7 - Point Cloud Data file format
VERSION 0.7
FIELDS x y z rgb scalar_Scalar_field
SIZE 4 4 4 4 4
TYPE F F F U F
COUNT 1 1 1 1 1
WIDTH 1217
HEIGHT 1
VIEWPOINT 0 0 0 1 0 0 0
POINTS 1217
DATA ascii
100.059 101.997 200.74699 9743528 -1399
100.059 101.995 200.746 9745576 -1358
100.059 101.994 200.745 10009264 -1392
100.059 101.997 200.742 9612456 -1404
100.059 101.994 200.742 10005676 -1405
100.059 101.994 200.741 10137256 -1406
100.059 101.994 200.739 9743006 -1394
100.059 101.994 200.73801 10533032 -1412
100.059 101.994 200.73599 9743522 -1394
100.059 101.994 200.735 9216664 -1396
100.059 101.996 200.733 8954516 -1411
100.059 101.994 200.73199 9480864 -1409
100.059 101.994 200.731 9874602 -1403
100.059 101.994 200.73 9348256 -1399
100.059 101.995 200.72701 10006182 -1399
100.059 101.994 200.72701 10006698 -1408
100.059 101.995 200.72501 10004148 -1389
100.059 101.996 200.72301 9610918 -1311
100.059 102 200.72 9350308 -1197
100.059 102 200.718 9219754 -1180
100.059 102.001 200.717 9481894 -1194
100.059 102 200.715 9481376 -1185
100.059 102 200.714 9612458 -1192
100.059 102.001 200.71201 8822408 -1162
100.059 101.998 200.71201 8688752 -1161
100.059 101.999 200.71001 0 -1172
100.059 102 200.70799 0 -1164
100.059 102.001 200.70599 0 -1174
100.059 101.999 200.70599 0 -1172
100.059 102.001 200.70399 0 -1181
100.06 102.001 200.70399 0 -1171
100.06 102.002 200.705 0 -1162
100.06 102.001 200.707 0 -1167
100.06 102 200.709 0 -1170
100.06 102.002 200.71001 0 -1141
100.06 102.002 200.711 7898220 -1156
100.06 101.999 200.714 8426114 -1166
100.06 102.001 200.714 8559250 -1186
100.06 102 200.716 9480362 -1171
100.06 102.001 200.717 9612460 -1192
100.06 102.001 200.71899 9351334 -1155
100.06 102 200.72 9218720 -1221
100.06 101.997 200.72301 9479330 -1328
100.06 101.996 200.72501 10006188 -1390
100.06 101.996 200.726 10269354 -1410
100.06 101.994 200.729 9875108 -1406
100.06 101.998 200.729 9480352 -1383
100.06 101.995 200.731 9875622 -1398
100.06 101.996 200.73199 9480860 -1401
100.06 101.994 200.73399 9086100 -1394
100.06 101.994 200.735 9348764 -1398
100.06 101.995 200.73599 9875104 -1407
100.06 101.994 200.73801 10137760 -1407
100.06 101.994 200.74001 9874592 -1397
100.06 101.996 200.74001 10530988 -1396
100.06 101.995 200.742 9873576 -1410
100.06 101.996 200.743 9745070 -1396
100.06 101.994 200.745 9350820 -1374
100.06 101.997 200.745 10270386 -1345
100.06 101.998 200.74699 10137262 -1415
100.06 102.002 200.74699 10531494 -1525
100.06 102.007 200.746 10663076 -1581
100.061 102.011 200.746 10401970 -1582
100.061 102.016 200.745 10534070 -1580
100.062 102.015 200.745 10402486 -1600
100.062 102.009 200.74699 10270890 -1600
100.062 102.006 200.74699 10270376 -1578
100.062 102.003 200.746 10663090 -1487
100.061 101.998 200.74699 10269362 -1370
100.061 101.995 200.746 9745068 -1349
100.061 101.996 200.744 9744556 -1403
100.061 101.996 200.743 9612456 -1407
100.061 101.996 200.742 9874596 -1397
100.061 101.997 200.74001 9873566 -1395
100.061 101.997 200.73801 9875620 -1410
100.061 101.998 200.73599 10138790 -1400
100.061 101.998 200.735 9217688 -1397
100.061 101.996 200.73399 9217688 -1409
100.061 101.997 200.733 9349272 -1406
100.061 101.996 200.73199 9875618 -1412
100.061 101.996 200.73 9612448 -1412
100.061 101.998 200.728 9612448 -1416
100.061 101.996 200.72701 9480860 -1407
100.061 101.997 200.72501 9744036 -1400
100.061 101.996 200.72501 10006698 -1361
100.061 102 200.722 9482406 -1282
100.061 102.001 200.72 9482410 -1196
100.061 102.001 200.718 9481372 -1188
100.062 102.003 200.716 9216668 -1193
100.061 102.002 200.715 8426134 -1168
100.061 102.002 200.714 6060130 -1169
100.061 102.001 200.71201 5796956 -1160
100.061 102.001 200.711 6056040 -1142
100.061 102.001 200.71001 0 -1168
100.062 102.003 200.70799 0 -1154
100.061 102.002 200.70599 0 -1157
100.062 102.002 200.70399 0 -1137
100.061 102.001 200.70399 0 -1168
100.063 102.002 200.705 0 -1195
100.063 102.003 200.70599 0 -1177
100.063 102.003 200.707 0 -1174
100.063 102.004 200.70799 0 -1179
100.063 102.002 200.711 4743266 -1173
100.063 102.002 200.71201 4745302 -1155
100.063 102.004 200.713 5141594 -1178
100.063 102.002 200.715 7115378 -1180
100.063 102.003 200.716 8035972 -1176
100.063 102.002 200.718 8825496 -1183
100.063 102.001 200.72 9220768 -1188
100.063 102.001 200.72099 9746596 -1248
100.063 101.999 200.72301 9481380 -1347
100.063 101.999 200.72501 9612962 -1393
100.063 101.998 200.72701 9349786 -1395
100.063 101.997 200.729 9875618 -1412
100.063 101.998 200.73 9744036 -1419
100.063 101.996 200.73199 10007204 -1408
100.063 101.997 200.733 9875616 -1405
100.063 101.998 200.73399 8955540 -1407
100.063 101.996 200.73599 8823444 -1405
100.063 101.997 200.737 9744548 -1403
100.063 101.997 200.73801 9745572 -1398
100.063 101.999 200.739 10138276 -1401
100.063 101.998 200.741 10007206 -1398
100.063 101.998 200.742 9746090 -1400
100.063 101.999 200.743 9613996 -1389
100.063 101.998 200.745 9876656 -1368
100.063 102 200.746 10007212 -1351
100.063 102.003 200.746 10138794 -1456
100.063 102.007 200.746 10270892 -1546
100.063 102.011 200.746 9877164 -1590
100.063 102.015 200.746 10140850 -1601
100.064 102.018 200.745 11057852 -1598
100.064 102.012 200.746 9878698 -1596
100.064 102.007 200.746 10271400 -1542
100.064 102.003 200.746 10535082 -1445
100.064 102 200.746 10007718 -1345
100.064 101.998 200.745 10138798 -1362
100.064 101.999 200.744 9746606 -1395
100.064 101.997 200.743 8693916 -1401
100.064 102 200.74001 9745572 -1394
100.064 101.996 200.74001 9745572 -1406
100.064 101.999 200.73801 9483934 -1400
100.064 101.999 200.73599 9482916 -1410
100.064 101.999 200.735 9087644 -1411
100.064 101.999 200.73399 8561292 -1413
100.064 101.998 200.73199 9086610 -1413
100.064 101.999 200.731 9612448 -1402
100.064 102 200.729 9875626 -1412
100.064 101.998 200.729 9744548 -1412
100.064 102.001 200.726 9349788 -1408
100.064 101.999 200.72501 9613476 -1396
100.064 102.001 200.72301 9613484 -1337
100.064 102.002 200.72099 9745574 -1237
100.064 102.004 200.71899 9087120 -1162
100.064 102.004 200.717 8168078 -1184
100.064 102.004 200.716 4095570 -1192
100.064 102.002 200.715 3568702 -1189
100.064 102.003 200.713 4223556 -1166
100.064 102.003 200.71201 4613728 -1156
100.064 102.004 200.71001 4481624 -1155
100.064 102.003 200.709 0 -1157
100.064 102.004 200.707 0 -1176
100.064 102.004 200.70599 0 -1197
100.064 102.004 200.70399 0 -1251
100.065 102.003 200.70399 0 -1374
100.065 102.004 200.70599 0 -1251
100.065 102.006 200.70599 0 -1185
100.065 102.005 200.70799 0 -1169
100.065 102.003 200.71001 4479056 -1148
100.065 102.003 200.71201 5139036 -1157
100.065 102.005 200.71201 4613208 -1169
100.065 102.005 200.714 3566676 -1187
100.065 102.005 200.715 3568216 -1190
100.065 102.005 200.717 7377024 -1193
100.065 102.004 200.71899 9084566 -1171
100.065 102.004 200.72 9877168 -1182
100.065 102.002 200.722 9745072 -1296
100.065 101.999 200.72501 9876656 -1382
100.065 102.001 200.72501 9613476 -1402
100.065 102.001 200.72701 9349790 -1420
100.065 102 200.729 9611940 -1416
100.065 102 200.73 9349280 -1409
100.065 101.998 200.73199 9876130 -1423
100.065 102 200.733 8824466 -1414
100.065 101.999 200.735 8692884 -1402
100.065 101.999 200.73599 9351844 -1412
100.065 101.997 200.73801 9615524 -1389
100.065 102 200.73801 9613478 -1387
100.065 102.001 200.74001 9350306 -1398
100.065 102 200.742 9219236 -1395
100.065 101.998 200.743 10008238 -1408
100.065 102.001 200.744 10138276 -1368
100.065 101.999 200.746 10270368 -1334
100.065 102.002 200.74699 10139294 -1391
100.065 102.008 200.745 9876124 -1517
100.065 102.01 200.746 9877670 -1577
100.066 102.015 200.746 10007722 -1608
100.067 102.018 200.746 10664626 -1600
100.067 102.013 200.746 9484456 -1596
100.067 102.009 200.746 10530974 -1562
100.067 102.006 200.746 9613462 -1449
100.066 102.001 200.74699 10400924 -1327
100.066 102.001 200.745 10137756 -1353
100.066 102.002 200.743 10138280 -1392
100.066 102 200.743 9612454 -1393
100.066 101.999 200.742 10139826 -1394
100.066 101.999 200.74001 9613480 -1381
100.066 102.001 200.73801 10007212 -1366
100.066 102.001 200.737 9484450 -1372
100.066 102.001 200.735 9220258 -1392
100.066 101.999 200.735 8561810 -1413
100.066 102.001 200.733 9219224 -1404
100.066 102.003 200.73 9480878 -1415
100.066 101.999 200.73 9744038 -1433
100.066 102.002 200.728 9876128 -1415
100.066 101.999 200.72701 9218206 -1419
100.066 102 200.726 9876650 -1412
100.066 102.002 200.72301 9480864 -1363
100.067 102.005 200.72099 9611948 -1270
100.067 102.005 200.71899 8168096 -1186
100.067 102.006 200.717 6984850 -1186
100.067 102.005 200.716 5405302 -1197
100.067 102.006 200.715 5136464 -1184
100.067 102.005 200.714 5792336 -1187
100.067 102.006 200.71201 5267032 -1183
100.067 102.007 200.71001 5136992 -1168
100.067 102.007 200.70799 5263430 -1166
100.067 102.005 200.70799 0 -1183
100.067 102.006 200.70599 0 -1232
100.067 102.005 200.705 0 -1373
100.067 102.006 200.703 0 -1545
99.958801 102.081 200.696 8031338 -1438
99.960297 102.079 200.686 7635568 -1440
99.960098 102.08 200.687 6717528 -1433
99.960098 102.08 200.688 7507044 -1439
99.960098 102.081 200.69 7636066 -1441
99.960098 102.081 200.69099 8420974 -1429
99.960098 102.081 200.69299 8817276 -1436
99.960098 102.08 200.69701 7769202 -1438
99.960098 102.08 200.69901 7769720 -1442
99.960098 102.08 200.701 7373944 -1449
99.961601 102.079 200.702 8030830 -1431
99.961601 102.078 200.701 7637102 -1443
99.961601 102.078 200.7 7901304 -1444
99.961601 102.079 200.698 7373934 -1432
99.961601 102.078 200.69701 7899254 -1432
99.961601 102.078 200.69501 8292480 -1424
99.961601 102.08 200.69299 8158842 -1443
99.961601 102.08 200.69099 8158330 -1433
99.961601 102.08 200.69 7899768 -1423
99.961601 102.08 200.689 7507058 -1432
99.961601 102.079 200.687 7901816 -1447
99.961601 102.077 200.686 8296058 -1443
99.962799 102.077 200.686 7768684 -1440
99.962799 102.076 200.688 8559228 -1443
99.962799 102.078 200.688 7508604 -1439
99.962799 102.078 200.69 6980724 -1440
99.962799 102.077 200.692 8423044 -1435
99.962799 102.077 200.69299 8553602 -1429
99.962799 102.076 200.69501 8687226 -1435
99.962799 102.078 200.696 8030830 -1431
99.962799 102.077 200.698 7243366 -1423
99.962799 102.077 200.69901 7506540 -1441
99.962799 102.077 200.701 7900274 -1434
99.962799 102.077 200.702 7898738 -1440
99.964104 102.076 200.702 8556160 -1429
99.964104 102.076 200.701 8556668 -1434
99.964104 102.078 200.69901 7900270 -1431
99.964104 102.076 200.698 8032360 -1433
99.964104 102.076 200.696 8030308 -1433
99.964104 102.075 200.69501 8423026 -1434
99.964104 102.076 200.69299 8423032 -1435
99.964104 102.075 200.692 7898748 -1430
99.964104 102.075 200.69099 6979186 -1441
99.964104 102.076 200.689 6981220 -1441
99.964104 102.076 200.687 7506028 -1443
99.964104 102.076 200.686 7898230 -1435
99.965302 102.075 200.685 8029308 -1438
99.965302 102.073 200.687 8161402 -1434
99.965302 102.075 200.688 7899764 -1432
99.965302 102.074 200.69 7900288 -1439
99.965302 102.073 200.692 7898234 -1430
99.965302 102.074 200.69299 8555134 -1424
99.965302 102.074 200.694 8817790 -1436
99.965302 102.076 200.69501 8816760 -1440
99.965302 102.075 200.69701 8555630 -1430
99.965302 102.073 200.69901 8163950 -1447
99.965302 102.074 200.7 7900270 -1431
99.965302 102.074 200.702 8425078 -1428
99.966797 102.072 200.702 8162416 -1448
99.966797 102.072 200.7 7638122 -1439
99.966797 102.073 200.69901 8162926 -1446
99.966797 102.073 200.69701 8554100 -1441
99.966797 102.074 200.69501 8422512 -1445
99.966797 102.073 200.694 7635048 -1430
99.966797 102.073 200.69299 7766124 -1427
99.966797 102.071 200.692 7635062 -1434
99.966797 102.072 200.69 7899768 -1439
99.966797 102.072 200.689 8029306 -1433
99.966797 102.073 200.686 8028790 -1430
99.966797 102.071 200.686 8031356 -1439
99.968102 102.072 200.685 8162938 -1436
99.968102 102.07 200.687 7898228 -1449
99.968102 102.07 200.689 8161400 -1439
99.968102 102.07 200.69 8688770 -1441
99.968102 102.071 200.69099 8424578 -1438
99.968102 102.071 200.69299 7897714 -1441
99.968102 102.071 200.694 8424562 -1432
99.968102 102.071 200.69501 7767658 -1426
99.968102 102.069 200.698 7765610 -1438
99.968102 102.07 200.69901 8028780 -1435
99.968102 102.07 200.701 8162418 -1440
99.968102 102.071 200.702 8423536 -1445
99.969299 102.068 200.702 7767654 -1445
99.969299 102.068 200.701 7767660 -1432
99.969299 102.071 200.69901 7370344 -1436
99.969299 102.066 200.69901 7766128 -1438
99.969299 102.069 200.696 8031858 -1440
99.969299 102.07 200.69501 8161906 -1440
99.969299 102.069 200.69299 7766646 -1434
99.969299 102.07 200.69099 7112820 -1430
99.969299 102.07 200.69 7506036 -1433
99.969299 102.069 200.689 8292980 -1427
99.969299 102.068 200.688 8161394 -1433
99.969299 102.067 200.686 7766638 -1434
99.969299 102.069 200.68401 8293500 -1447
99.970596 102.068 200.68401 8557164 -1438
99.970596 102.067 200.686 8030314 -1430
99.970596 102.067 200.688 8421504 -1429
99.970596 102.068 200.689 8684672 -1431
99.970596 102.067 200.69099 7898740 -1428
99.970596 102.065 200.69299 7243382 -1427
99.970596 102.067 200.694 6852218 -1433
99.970596 102.068 200.69501 8288882 -1434
99.970596 102.066 200.69701 8158836 -1436
99.970596 102.069 200.698 7766650 -1428
99.970596 102.069 200.69901 8553596 -1440
99.970596 102.068 200.701 7900778 -1429
99.970596 102.068 200.702 7243872 -1422
99.972099 102.065 200.702 8031858 -1436
99.971802 102.067 200.7 8423040 -1433
99.972099 102.065 200.7 7636602 -1430
99.972099 102.065 200.698 7768182 -1425
99.972099 102.066 200.696 8289908 -1437
99.971802 102.067 200.694 7898740 -1424
99.972099 102.066 200.69299 7768686 -1432
99.972099 102.065 200.692 7899246 -1424
99.972099 102.065 200.69099 8027254 -1419
99.971802 102.066 200.689 8816770 -1426
99.972099 102.065 200.688 8688244 -1421
99.971802 102.067 200.685 8162924 -1432
99.972099 102.064 200.685 8425078 -1431
99.973099 102.064 200.685 7901816 -1439
99.973099 102.062 200.688 7768694 -1433
99.973099 102.064 200.688 8029808 -1422
99.973099 102.063 200.69 7897714 -1417
99.973099 102.064 200.69099 8029308 -1406
99.973099 102.063 200.69299 8292982 -1424
99.973099 102.064 200.694 8160868 -1429
99.973099 102.065 200.69501 7767660 -1437
99.973099 102.064 200.69701 8290928 -1439
99.973099 102.064 200.69901 7900786 -1437
99.973099 102.064 200.7 7375992 -1435
99.973099 102.065 200.701 8028798 -1437
99.973099 102.065 200.702 7502950 -1425
99.974297 102.062 200.702 7636602 -1425
99.974297 102.062 200.7 7637622 -1431
99.974297 102.062 200.69901 8423534 -1439
99.974297 102.062 200.69701 8029290 -1434
99.974297 102.062 200.696 7769710 -1430
99.974297 102.061 200.69501 7898726 -1431
99.974297 102.063 200.69299 8293506 -1424
99.974297 102.064 200.69099 7371890 -1404
99.974297 102.063 200.69 7766644 -1404
99.974297 102.063 200.688 7635068 -1412
99.974297 102.061 200.688 7637116 -1428
99.974297 102.061 200.686 8165488 -1433
99.974297 102.063 200.68401 8031854 -1427
99.975601 102.062 200.68401 8424552 -1426
99.975601 102.06 200.687 7899740 -1426
99.975601 102.062 200.688 8030852 -1414
99.975601 102.061 200.689 7635088 -1405
99.975601 102.062 200.69099 7897212 -1421
99.975601 102.062 200.692 8819836 -1418
99.975601 102.062 200.69299 8165484 -1429
99.975601 102.061 200.69501 7376992 -1435
99.975601 102.06 200.69701 7374442 -1433
99.975601 102.06 200.69901 7768684 -1441
99.975601 102.061 200.69901 8424044 -1433
99.975601 102.06 200.702 8422004 -1439
99.976799 102.061 200.701 8946808 -1435
99.976799 102.06 200.7 8686710 -1426
99.976799 102.061 200.698 8032376 -1437
99.976799 102.06 200.69701 8031346 -1434
99.976799 102.058 200.696 7114350 -1440
99.976799 102.058 200.69501 6847584 -1431
99.976799 102.06 200.69299 8292472 -1421
99.976799 102.06 200.69099 8160914 -1418
99.976799 102.059 200.69 7635594 -1410
99.976799 102.059 200.688 8161920 -1410
99.976799 102.059 200.687 8555626 -1431
99.976799 102.059 200.685 8159848 -1429
99.976799 102.059 200.68401 0 -1436
99.978104 102.059 200.68401 0 -1432
99.978104 102.057 200.686 8291452 -1421
99.978104 102.057 200.688 8160894 -1421
99.978104 102.057 200.689 8162934 -1435
99.978104 102.057 200.69099 7899764 -1427
99.978104 102.059 200.69099 8160392 -1421
99.978104 102.059 200.69299 8424078 -1416
99.978104 102.057 200.69501 7767162 -1434
99.978104 102.057 200.69701 6850172 -1433
99.978104 102.056 200.69901 7243364 -1432
99.978104 102.056 200.7 7505018 -1451
99.978104 102.058 200.701 8160380 -1440
99.978104 102.057 200.703 9079422 -1431
99.979301 102.054 200.702 7367806 -1445
99.979301 102.055 200.701 8031362 -1445
99.979301 102.057 200.698 7114348 -1444
99.979301 102.055 200.69701 7637108 -1433
99.979301 102.055 200.696 7899260 -1423
99.979301 102.056 200.694 7766654 -1416
99.979301 102.055 200.69299 8687742 -1422
99.979301 102.057 200.69099 8294002 -1429
99.979301 102.057 200.689 7636090 -1420
99.979301 102.056 200.688 7241336 -1424
99.979301 102.056 200.686 8290932 -1428
99.979301 102.055 200.685 0 -1430
99.979301 102.057 200.683 0 -1440
99.980797 102.052 200.68401 0 -1449
99.980797 102.052 200.686 0 -1438
99.980797 102.053 200.687 0 -1424
99.980797 102.054 200.688 7373424 -1433
99.980797 102.054 200.689 7637630 -1427
99.980797 102.055 200.69099 7506034 -1423
99.980797 102.054 200.69299 7768174 -1428
99.980797 102.055 200.69299 8161912 -1428
99.980797 102.054 200.69501 7899768 -1428
99.980797 102.052 200.69701 8294512 -1435
99.980797 102.052 200.69901 7504994 -1425
99.980797 102.054 200.7 7113846 -1440
99.980797 102.052 200.702 8683664 -1443
99.982101 102.052 200.702 8028284 -1435
99.982101 102.051 200.701 6980200 -1433
99.982101 102.051 200.69901 7769716 -1427
99.982101 102.051 200.698 7637622 -1435
99.982101 102.051 200.696 8294526 -1430
99.982101 102.052 200.694 8426108 -1429
99.982101 102.053 200.69299 7637618 -1425
99.982101 102.053 200.69099 7638644 -1431
99.982101 102.051 200.69 8032890 -1425
99.982101 102.054 200.688 7636598 -1425
99.982101 102.053 200.686 0 -1431
99.982101 102.052 200.685 0 -1435
99.982101 102.051 200.68401 0 -1435
99.983299 102.049 200.685 0 -1422
99.983299 102.048 200.687 0 -1430
99.983299 102.05 200.688 0 -1434
99.983299 102.052 200.688 7897730 -1424
99.983299 102.051 200.69 7636594 -1439
99.983299 102.049 200.69299 8032884 -1429
99.983299 102.05 200.694 7374958 -1416
99.983299 102.05 200.69501 8162936 -1416
99.983299 102.051 200.696 7504496 -1417
99.983299 102.05 200.698 7637626 -1429
99.983299 102.051 200.69901 7770236 -1426
99.983299 102.05 200.701 8031846 -1433
99.983299 102.05 200.703 8295030 -1440
99.984596 102.05 200.702 8555130 -1419
99.984596 102.049 200.701 9077884 -1424
99.984596 102.049 200.69901 7898748 -1431
99.984596 102.05 200.698 7767162 -1436
99.984596 102.049 200.69701 8163444 -1433
99.984596 102.049 200.69501 7374444 -1424
99.984596 102.049 200.694 7899770 -1431
99.984596 102.049 200.692 8030840 -1435
99.984596 102.049 200.69099 7767162 -1429
99.984596 102.049 200.689 8161410 -1431
99.984596 102.05 200.687 0 -1423
99.984596 102.048 200.687 0 -1431
99.984596 102.049 200.685 0 -1421
99.984596 102.049 200.68401 0 -1437
99.985802 102.049 200.683 0 -1433
99.985802 102.048 200.685 0 -1434
99.985802 102.048 200.686 0 -1414
99.985802 102.047 200.688 0 -1437
99.985802 102.047 200.689 0 -1431
99.985802 102.046 200.69099 7767156 -1425
99.985802 102.046 200.69299 7768182 -1431
99.985802 102.048 200.694 7899770 -1426
99.985802 102.046 200.696 8030840 -1427
99.985802 102.049 200.696 8163448 -1428
99.985802 102.048 200.698 8163450 -1437
99.985802 102.048 200.7 8161912 -1426
99.985802 102.048 200.701 8291958 -1434
99.985802 102.047 200.703 8421996 -1420
99.987099 102.047 200.703 7767654 -1432
99.987099 102.045 200.702 8290916 -1435
99.987099 102.044 200.701 7636582 -1418
99.987099 102.047 200.698 7506546 -1433
99.987099 102.046 200.69701 7502450 -1427
99.987099 102.048 200.69501 8027762 -1414
99.987099 102.045 200.69501 7638140 -1439
99.987099 102.046 200.69299 7375990 -1430
99.987099 102.046 200.69099 8555114 -1427
99.987099 102.046 200.69 0 -1440
99.987099 102.046 200.688 0 -1428
99.987099 102.045 200.687 0 -1432
99.987099 102.046 200.685 0 -1439
99.987099 102.046 200.68401 0 -1435
99.988297 102.044 200.683 0 -1437
99.988297 102.042 200.686 0 -1444
99.988297 102.044 200.686 0 -1434
99.988297 102.042 200.689 0 -1443
99.988297 102.044 200.689 0 -1441
99.988297 102.043 200.69099 0 -1431
99.988297 102.046 200.692 7638126 -1419
99.988297 102.043 200.694 7377530 -1421
99.988297 102.044 200.69501 8293500 -1443
99.988297 102.044 200.69701 8158838 -1441
99.988297 102.044 200.698 7897208 -1438
99.988297 102.044 200.69901 7770234 -1439
99.988297 102.043 200.702 8031854 -1432
99.988297 102.044 200.703 9470572 -1436
99.989601 102.043 200.701 7899760 -1445
99.989601 102.042 200.7 7768702 -1445
99.989601 102.042 200.69901 7898234 -1436
99.989601 102.043 200.69701 7634548 -1437
99.989601 102.041 200.696 7112820 -1438
99.989601 102.04 200.69501 6982772 -1437
99.989601 102.043 200.69299 8687222 -1432
99.989601 102.041 200.69099 0 -1426
99.989601 102.041 200.69 0 -1439
99.989601 102.043 200.688 0 -1437
99.989601 102.042 200.687 0 -1435
99.989601 102.044 200.68401 0 -1432
99.989601 102.044 200.683 0 -1417
99.990799 102.04 200.68401 0 -1434
99.990799 102.04 200.686 0 -1436
99.990799 102.04 200.687 0 -1427
99.990799 102.04 200.689 0 -1434
99.990799 102.039 200.69099 0 -1440
99.990799 102.042 200.69099 0 -1416
99.990799 102.043 200.692 7898758 -1427
99.990799 102.041 200.694 7373436 -1441
99.990799 102.04 200.696 7639162 -1439
99.990799 102.041 200.69701 7375994 -1458
99.990799 102.04 200.69901 7374962 -1434
99.990799 102.041 200.701 7638642 -1437
99.990799 102.04 200.702 8031352 -1443
99.992104 102.038 200.702 8294522 -1435
99.992104 102.04 200.7 7507576 -1431
99.992104 102.039 200.69901 7770752 -1435
99.992104 102.04 200.69701 7637624 -1437
99.992104 102.039 200.696 7899774 -1431
99.992104 102.037 200.69501 7767180 -1426
99.992104 102.04 200.69299 0 -1422
99.992104 102.037 200.692 0 -1434
99.992104 102.04 200.689 0 -1429
99.992104 102.041 200.688 0 -1427
99.992104 102.039 200.686 0 -1427
99.992104 102.038 200.686 0 -1434
99.992104 102.039 200.68401 0 -1433
99.993599 102.037 200.683 0 -1428
99.993301 102.037 200.68401 0 -1432
99.993301 102.038 200.686 0 -1428
99.993301 102.037 200.688 0 -1433
99.993301 102.037 200.689 0 -1436
99.993301 102.037 200.69 0 -1439
99.993301 102.038 200.69099 0 -1439
99.993301 102.037 200.69299 0 -1430
99.993301 102.038 200.69501 7766646 -1411
99.993301 102.039 200.69501 7897720 -1408
99.993301 102.036 200.698 7635060 -1428
99.993301 102.038 200.69901 7241848 -1429
99.993301 102.039 200.7 7372926 -1421
99.993301 102.036 200.702 7767172 -1429
99.994598 102.036 200.703 7766156 -1409
99.994598 102.036 200.701 7634054 -1431
99.994598 102.034 200.701 8160892 -1426
99.994598 102.036 200.698 7766134 -1415
99.994598 102.035 200.69701 8291958 -1420
99.994598 102.035 200.696 8687222 -1405
99.994598 102.035 200.694 0 -1418
99.994598 102.035 200.69299 0 -1424
99.994598 102.036 200.69099 0 -1430
99.994598 102.035 200.69 0 -1426
99.994598 102.035 200.688 0 -1420
99.994598 102.035 200.687 0 -1427
99.994598 102.035 200.685 0 -1421
99.994598 102.036 200.683 0 -1422
99.996101 102.034 200.683 0 -1410
99.996101 102.033 200.685 0 -1419
99.996101 102.033 200.686 0 -1416
99.996101 102.033 200.688 0 -1412
99.996101 102.033 200.689 0 -1424
99.996101 102.032 200.69099 0 -1421
99.996101 102.034 200.692 0 -1430
99.996101 102.035 200.69299 0 -1420
99.996101 102.033 200.69501 0 -1437
99.996101 102.036 200.69501 8159864 -1410
99.996101 102.033 200.698 7898228 -1425
99.996101 102.034 200.69901 8030326 -1431
99.996101 102.035 200.701 8029822 -1415
99.996101 102.034 200.702 7766146 -1418
99.997101 102.034 200.702 7636598 -1414
99.997101 102.033 200.701 8030838 -1428
99.997299 102.031 200.7 8029816 -1413
99.997101 102.032 200.698 8160386 -1414
99.997299 102.032 200.69701 0 -1417
99.997101 102.033 200.69501 0 -1430
99.997101 102.032 200.694 0 -1423
99.997101 102.033 200.692 0 -1420
99.997101 102.033 200.69 0 -1411
99.997101 102.032 200.689 0 -1412
99.997101 102.032 200.688 0 -1409
99.997101 102.033 200.686 0 -1409
99.997101 102.031 200.685 0 -1420
99.997101 102.032 200.683 0 -1405
99.998596 102.032 200.683 0 -1408
99.998596 102.033 200.68401 0 -1401
99.998596 102.031 200.686 0 -1409
99.998596 102.031 200.688 0 -1423
99.998596 102.03 200.689 0 -1412
99.998596 102.031 200.69 0 -1403
99.998596 102.031 200.692 0 -1412
99.998596 102.031 200.69299 0 -1420
99.998596 102.031 200.69501 0 -1430
99.998596 102.032 200.696 0 -1414
99.998596 102.031 200.698 7763594 -1411
99.998596 102.032 200.69901 8027778 -1423
99.998596 102.031 200.701 8554618 -1417
99.998596 102.031 200.702 7507054 -1419
99.999603 102.03 200.702 8425074 -1413
99.999603 102.03 200.7 8556158 -1423
99.999603 102.031 200.69901 8292990 -1403
99.999603 102.03 200.69701 0 -1414
99.999603 102.029 200.69701 0 -1406
99.999603 102.029 200.69501 0 -1425
99.999603 102.03 200.69299 0 -1410
99.999603 102.03 200.69099 0 -1401
99.999603 102.029 200.69 0 -1412
99.999603 102.029 200.689 0 -1424
99.999603 102.03 200.687 0 -1410
99.999603 102.029 200.686 0 -1409
99.999603 102.029 200.685 0 -1400
99.999603 102.03 200.683 0 -1413
100.001 102.029 200.68201 0 -1415
100.001 102.027 200.68401 0 -1411
100.001 102.026 200.686 0 -1416
100.001 102.027 200.687 0 -1410
100.001 102.025 200.69 0 -1412
100.001 102.028 200.69 0 -1406
100.001 102.029 200.69099 0 -1411
100.001 102.029 200.69299 0 -1412
100.001 102.028 200.694 0 -1413
100.001 102.027 200.696 0 -1435
100.001 102.029 200.69701 0 -1422
100.001 102.029 200.69901 7767658 -1412
100.001 102.028 200.7 7505506 -1421
100.001 102.028 200.702 8029800 -1413
100.002 102.025 200.702 8164476 -1417
100.002 102.027 200.7 7770732 -1423
100.002 102.026 200.69901 0 -1419
100.002 102.025 200.698 0 -1426
100.002 102.026 200.696 0 -1427
100.002 102.026 200.69501 0 -1434
100.002 102.026 200.69299 0 -1427
100.002 102.026 200.692 0 -1418
100.002 102.025 200.69099 0 -1420
100.002 102.025 200.689 0 -1416
100.002 102.026 200.687 0 -1408
100.002 102.026 200.686 0 -1411
100.002 102.027 200.68401 0 -1409
100.002 102.025 200.683 0 -1419
100.004 102.024 200.68201 0 -1416
100.004 102.023 200.68401 0 -1416
100.004 102.024 200.686 0 -1418
100.004 102.025 200.686 0 -1412
100.004 102.023 200.689 0 -1410
100.004 102.026 200.689 0 -1408
100.004 102.026 200.69099 0 -1424
100.004 102.023 200.69299 0 -1432
100.004 102.023 200.69501 0 -1410
100.004 102.027 200.69501 0 -1406
100.004 102.024 200.69701 0 -1422
100.004 102.024 200.69901 0 -1421
100.004 102.025 200.7 7112296 -1426
100.004 102.025 200.701 7507062 -1426
99.958801 102.081 200.73 7764080 -1560
99.958801 102.081 200.72501 7635572 -1541
99.960098 102.08 200.70399 7637626 -1433
99.960098 102.081 200.70599 7507056 -1444
99.960098 102.081 200.70799 7506028 -1443
99.960098 102.081 200.709 8162418 -1438
99.960098 102.081 200.711 7899244 -1455
99.960098 102.08 200.714 7636076 -1440
99.960098 102.081 200.72 7898732 -1436
99.960098 102.08 200.72099 7374422 -1431
99.960098 102.081 200.72301 8031832 -1452
99.960098 102.081 200.724 7634030 -1516
99.960297 102.079 200.72701 7503988 -1558
99.960297 102.079 200.728 7374442 -1578
99.960098 102.081 200.73 7765102 -1562
99.960098 102.08 200.73199 7109726 -1552
99.960098 102.081 200.73399 7764068 -1560
99.960098 102.081 200.73599 8027240 -1551
99.960297 102.079 200.74001 7634548 -1544
99.960098 102.08 200.74001 7503470 -1541
99.960098 102.081 200.742 7634544 -1542
99.960098 102.081 200.745 8288884 -1542
99.960098 102.081 200.746 7894636 -1481
99.960098 102.081 200.74699 7240828 -1428
99.961601 102.081 200.74699 7504490 -1428
99.961601 102.08 200.746 8422518 -1461
99.961601 102.078 200.745 7500402 -1527
99.961601 102.078 200.744 8030326 -1542
99.961601 102.077 200.743 7636072 -1540
99.961601 102.08 200.74001 8161394 -1545
99.961601 102.079 200.739 8028786 -1551
99.961601 102.078 200.73801 7765618 -1545
99.961601 102.079 200.73599 8158822 -1546
99.961601 102.079 200.735 6844004 -1545
99.961601 102.079 200.73399 6845542 -1550
99.961601 102.079 200.73199 7109224 -1556
99.961601 102.08 200.73 7502962 -1557
99.961601 102.079 200.729 7503978 -1559
99.961601 102.08 200.72701 6980184 -1572
99.961601 102.079 200.726 7504482 -1568
99.961601 102.08 200.724 8159856 -1523
99.961601 102.08 200.72301 8029292 -1485
99.961601 102.079 200.722 8030326 -1444
99.961601 102.079 200.72 7635568 -1450
99.961601 102.08 200.718 8162418 -1435
99.961601 102.078 200.717 7898722 -1437
99.961601 102.08 200.715 8161388 -1433
99.961601 102.079 200.714 7636088 -1439
99.961601 102.08 200.71201 8032374 -1437
99.961601 102.081 200.71001 7902314 -1432
99.961601 102.08 200.71001 7639152 -1434
99.961601 102.078 200.70799 7507574 -1436
99.961601 102.079 200.707 7507060 -1443
99.961601 102.08 200.705 7768180 -1432
99.961601 102.079 200.70399 7899242 -1431
99.962799 102.078 200.70399 8030324 -1428
99.962799 102.077 200.705 7504484 -1431
99.962799 102.078 200.70599 8031856 -1435
99.962799 102.077 200.70799 7900282 -1457
99.962799 102.078 200.71001 7242864 -1443
99.962799 102.076 200.71201 7375468 -1444
99.962799 102.077 200.713 7770730 -1441
99.962799 102.078 200.714 7637100 -1434
99.962799 102.077 200.716 8291446 -1445
99.962799 102.076 200.718 8160876 -1435
99.962799 102.079 200.718 7768678 -1435
99.962799 102.077 200.72 8951426 -1448
99.962799 102.077 200.722 7766130 -1450
99.962799 102.079 200.72301 7634032 -1472
99.962799 102.077 200.72501 7765104 -1527
99.962799 102.078 200.726 8160878 -1556
99.962799 102.08 200.72701 7504478 -1571
99.962799 102.077 200.729 7373924 -1563
99.962799 102.079 200.73 7240810 -1551
99.962799 102.078 200.73199 7634548 -1555
99.962799 102.076 200.73399 6977132 -1554
99.962799 102.078 200.735 6975596 -1545
99.962799 102.079 200.73599 7764074 -1542
99.962799 102.079 200.737 7765606 -1545
99.962799 102.077 200.74001 8028778 -1547
99.962799 102.077 200.741 7503974 -1552
99.962799 102.077 200.742 7636588 -1545
99.962799 102.076 200.744 7768682 -1545
99.962799 102.077 200.745 7503982 -1528
99.962799 102.077 200.74699 7239794 -1459
99.962799 102.077 200.748 7635054 -1397
99.962799 102.08 200.748 6978658 -1478
99.964104 102.079 200.74899 7372396 -1489
99.964104 102.079 200.74699 7240824 -1393
99.964104 102.077 200.746 7110252 -1449
99.964104 102.076 200.745 7504990 -1519
99.964104 102.076 200.744 6847070 -1553
99.964104 102.076 200.742 7504488 -1548
99.964104 102.076 200.741 7239766 -1546
99.964104 102.077 200.739 8027742 -1544
99.964104 102.075 200.73801 8685156 -1548
99.964104 102.077 200.73599 7501410 -1541
99.964104 102.077 200.735 6845040 -1540
99.964104 102.076 200.73399 6713450 -1547
99.964104 102.076 200.73199 7502960 -1560
99.964104 102.076 200.73 7767154 -1543
99.964104 102.074 200.73 7504482 -1562
99.964104 102.076 200.728 7372384 -1566
99.964104 102.077 200.726 8291440 -1559
99.964104 102.075 200.72501 7764586 -1525
99.964104 102.076 200.72301 8160878 -1481
99.964104 102.076 200.72099 8027752 -1454
99.964104 102.076 200.72 7899750 -1442
99.964104 102.076 200.71899 7375462 -1433
99.964104 102.077 200.717 8291958 -1436
99.964104 102.077 200.715 8684144 -1446
99.964104 102.077 200.714 7109214 -1443
99.964104 102.077 200.71201 7507054 -1449
99.964104 102.076 200.711 8162932 -1438
99.964104 102.076 200.71001 8161394 -1427
99.964104 102.076 200.70799 8423544 -1443
99.964104 102.077 200.70599 8424568 -1427
99.964104 102.074 200.70599 7898236 -1433
99.964104 102.077 200.70399 7898748 -1429
99.965302 102.074 200.70399 7636596 -1425
99.965302 102.076 200.70399 7373426 -1433
99.965302 102.076 200.70599 7898230 -1442
99.965302 102.072 200.709 8292988 -1439
99.965302 102.075 200.709 8160374 -1429
99.965302 102.076 200.71001 8292464 -1427
99.965302 102.074 200.713 8030834 -1449
99.965302 102.073 200.714 7901300 -1441
99.965302 102.074 200.715 7636070 -1436
99.965302 102.074 200.717 9078908 -1433
99.965302 102.074 200.71899 7898232 -1434
99.965302 102.073 200.72099 7113324 -1444
99.965302 102.075 200.72099 8032870 -1445
99.965302 102.074 200.72301 8423526 -1473
99.965302 102.074 200.72501 8424554 -1513
99.965302 102.074 200.726 8686696 -1563
99.965302 102.075 200.72701 7503464 -1579
99.965302 102.074 200.729 7635060 -1562
99.965302 102.072 200.731 7766130 -1557
99.965302 102.075 200.731 7898228 -1559
99.965302 102.075 200.733 7239278 -1561
99.965302 102.075 200.73399 7239278 -1559
99.965302 102.073 200.73599 7240300 -1550
99.965302 102.075 200.737 8028768 -1550
99.965302 102.073 200.739 8685150 -1549
99.965302 102.075 200.74001 8159848 -1548
99.965302 102.074 200.742 7636064 -1559
99.965302 102.074 200.743 6979690 -1548
99.965302 102.074 200.745 7242868 -1531
99.965302 102.074 200.746 7768696 -1484
99.965302 102.075 200.74699 7113826 -1411
99.965302 102.076 200.748 6982764 -1443
99.965302 102.079 200.74899 7372924 -1555
99.966599 102.079 200.748 7243376 -1531
99.966797 102.075 200.748 7508592 -1443
99.966797 102.074 200.74699 7374458 -1409
99.966797 102.073 200.746 7372928 -1495
99.966797 102.074 200.744 7768178 -1541
99.966797 102.071 200.744 7373924 -1549
99.966797 102.073 200.742 8290926 -1552
99.966797 102.073 200.74001 8026220 -1549
99.966797 102.073 200.73801 8421468 -1552
99.966797 102.073 200.737 7240798 -1553
99.966797 102.072 200.73599 7109216 -1547
99.966797 102.071 200.735 7633518 -1547
99.966797 102.074 200.733 6844010 -1560
99.966797 102.071 200.73199 8028282 -1555
99.966797 102.073 200.73 7370858 -1559
99.966797 102.072 200.729 7503464 -1575
99.966797 102.07 200.728 8160364 -1572
99.966797 102.074 200.72501 8423018 -1560
99.966797 102.072 200.724 7769688 -1536
99.966797 102.073 200.72301 8292964 -1469
99.966797 102.074 200.72099 6983276 -1442
99.966797 102.074 200.71899 6719088 -1414
99.966797 102.071 200.71899 8685688 -1431
99.966797 102.073 200.717 8159848 -1440
99.966797 102.074 200.715 7112304 -1443
99.966797 102.071 200.714 6980210 -1438
99.966797 102.073 200.71201 7767666 -1427
99.966797 102.074 200.71001 8425076 -1437
99.966797 102.072 200.71001 7373418 -1445
99.966797 102.072 200.70799 8162940 -1435
99.966797 102.074 200.70599 7506036 -1433
99.966797 102.072 200.70599 7768182 -1435
99.966797 102.072 200.70399 8424058 -1434
99.968102 102.071 200.70399 8684148 -1448
99.968102 102.072 200.70399 8028798 -1440
99.968102 102.069 200.707 7636092 -1435
99.968102 102.072 200.70799 7505018 -1434
99.968102 102.072 200.709 7639660 -1435
99.968102 102.073 200.71001 7113830 -1445
99.968102 102.071 200.71201 8029812 -1438
99.968102 102.071 200.714 8159866 -1427
99.968102 102.071 200.715 7768702 -1439
99.968102 102.071 200.717 7506034 -1434
99.968102 102.069 200.71899 8162418 -1435
99.968102 102.072 200.71899 7767674 -1428
99.968102 102.071 200.72099 7112322 -1425
99.968102 102.073 200.722 7638138 -1471
99.968102 102.071 200.724 7504486 -1524
99.968102 102.071 200.726 7504478 -1565
99.968102 102.071 200.72701 8290932 -1576
99.968102 102.07 200.729 7503972 -1576
99.968102 102.069 200.731 7767140 -1576
99.968102 102.072 200.731 7634024 -1557
99.968102 102.072 200.733 7106680 -1553
99.968102 102.072 200.73399 7106676 -1551
99.968102 102.073 200.735 8027752 -1550
99.968102 102.07 200.73801 7766112 -1547
99.968102 102.072 200.73801 8029288 -1551
99.968102 102.072 200.74001 8552552 -1549
99.968102 102.073 200.741 8420974 -1548
99.968102 102.071 200.743 8420978 -1563
99.968102 102.071 200.745 7895148 -1547
99.968102 102.07 200.746 7764604 -1493
99.968102 102.069 200.748 7764608 -1420
99.968102 102.074 200.748 7240298 -1436
99.968102 102.076 200.74899 8160876 -1533
99.967796 102.08 200.74899 8027762 -1603
99.969101 102.079 200.74899 8028790 -1598
99.969299 102.076 200.748 8161380 -1567
99.969299 102.073 200.748 7635042 -1477
99.969299 102.071 200.74699 7898238 -1417
99.969299 102.068 200.74699 7634556 -1471
99.969299 102.071 200.745 8290422 -1538
99.969299 102.068 200.744 8422002 -1559
99.969299 102.071 200.742 8028784 -1552
99.969299 102.068 200.741 8420458 -1546
99.969299 102.07 200.739 8028778 -1547
99.969299 102.07 200.73801 7239266 -1549
99.969299 102.068 200.737 7500906 -1545
99.969299 102.069 200.735 7370350 -1542
99.969299 102.069 200.73399 7107178 -1551
99.969299 102.071 200.73199 7764594 -1559
99.969299 102.068 200.731 7635054 -1559
99.969299 102.07 200.729 8160870 -1576
99.969299 102.07 200.72701 8291944 -1577
99.969299 102.07 200.726 7898730 -1560
99.969299 102.07 200.724 7372892 -1536
99.969299 102.07 200.72301 7506036 -1467
99.969299 102.069 200.722 7505540 -1431
99.969299 102.069 200.72 7766648 -1433
99.969299 102.069 200.71899 8161912 -1439
99.969299 102.069 200.717 7768700 -1428
99.969299 102.07 200.715 8422522 -1431
99.969299 102.071 200.714 8684154 -1423
99.969299 102.068 200.714 7243374 -1436
99.969299 102.07 200.711 6456418 -1432
99.969299 102.069 200.71001 7376494 -1433
99.969299 102.067 200.709 7372398 -1440
99.969299 102.069 200.707 7635060 -1433
99.969299 102.071 200.705 9077886 -1445
99.969299 102.071 200.703 9208950 -1447
99.970596 102.066 200.705 8556144 -1444
99.970596 102.068 200.70599 8949358 -1445
99.970596 102.068 200.707 8031336 -1441
99.970596 102.067 200.709 7899258 -1435
99.970596 102.067 200.71001 7244926 -1431
99.970596 102.067 200.71201 8029312 -1429
99.970596 102.067 200.713 8289916 -1437
99.970596 102.068 200.714 8290420 -1416
99.970596 102.068 200.716 8425596 -1423
99.970596 102.068 200.717 7769208 -1437
99.970596 102.066 200.71899 7502446 -1435
99.970596 102.068 200.72099 8422526 -1435
99.970596 102.067 200.722 7111796 -1436
99.970596 102.067 200.72301 7638134 -1481
99.970596 102.067 200.72501 7896166 -1545
99.970596 102.065 200.72701 7634550 -1574
99.970596 102.064 200.729 7765106 -1574
99.970596 102.067 200.73 8685670 -1567
99.970596 102.068 200.73 7766110 -1563
99.970596 102.068 200.73199 7238774 -1553
99.970596 102.066 200.73399 7764078 -1550
99.970596 102.068 200.735 7633490 -1544
99.970596 102.066 200.737 7240292 -1541
99.970596 102.068 200.73801 7505530 -1544
99.970596 102.066 200.74001 6980710 -1545
99.970596 102.067 200.741 6720106 -1546
99.970596 102.066 200.743 6716024 -1546
99.970596 102.067 200.744 8161396 -1541
99.970596 102.067 200.746 8420970 -1521
99.970596 102.067 200.74699 8290424 -1447
99.970596 102.07 200.74699 7768184 -1406
99.970596 102.072 200.748 7635576 -1497
99.970596 102.074 200.74899 7503478 -1585
99.970596 102.079 200.748 6586474 -1608
99.971802 102.08 200.748 8031868 -1607
99.971802 102.078 200.74699 7240310 -1593
99.971802 102.073 200.748 7896192 -1565
99.971802 102.068 200.748 7767668 -1481
99.971802 102.066 200.74699 7110254 -1412
99.971802 102.067 200.746 7634020 -1466
99.971802 102.067 200.745 8160874 -1534
99.972099 102.065 200.744 6976630 -1545
99.972099 102.066 200.742 7375462 -1538
99.972099 102.065 200.741 7110756 -1538
99.971802 102.066 200.739 6583912 -1535
99.971802 102.066 200.737 7109236 -1549
99.972099 102.064 200.737 7370834 -1546
99.971802 102.067 200.73399 7501912 -1554
99.972099 102.065 200.73399 7502964 -1559
99.972099 102.064 200.73199 7503980 -1558
99.972099 102.065 200.731 8291932 -1572
99.972099 102.065 200.73 8422502 -1578
99.972099 102.064 200.728 7898740 -1589
99.972099 102.065 200.726 7767652 -1565
99.971802 102.067 200.724 7768692 -1533
99.971802 102.066 200.72301 8030332 -1480
99.972099 102.066 200.722 8424056 -1435
99.971802 102.067 200.72 7635058 -1433
99.972099 102.065 200.71899 7242872 -1437
99.971802 102.067 200.717 7899246 -1432
99.971802 102.067 200.715 7895656 -1434
99.972099 102.066 200.714 8289916 -1434
99.972099 102.065 200.713 8161412 -1433
99.971802 102.066 200.711 7506556 -1425
99.971802 102.067 200.709 7768180 -1427
99.971802 102.067 200.70799 7636588 -1447
99.972099 102.065 200.707 8290918 -1449
99.972099 102.064 200.70599 8028262 -1443
99.972099 102.065 200.70399 7902318 -1433
99.973099 102.063 200.705 7374946 -1434
99.973099 102.063 200.70599 7507054 -1431
99.973099 102.065 200.707 8160884 -1433
99.973099 102.064 200.709 8292978 -1439
99.973099 102.065 200.71001 7244392 -1435
99.973099 102.065 200.71201 7244916 -1429
99.972801 102.066 200.713 7768178 -1434
99.973099 102.063 200.715 8159860 -1428
99.973099 102.064 200.717 8685168 -1434
99.973099 102.065 200.718 7899244 -1423
99.973099 102.065 200.71899 7112820 -1433
99.973099 102.063 200.72099 7768180 -1438
99.973099 102.064 200.72301 8684134 -1454
99.973099 102.064 200.724 8289906 -1497
99.973099 102.065 200.72501 7374964 -1545
99.973099 102.064 200.72701 6720094 -1580
99.973099 102.064 200.728 7770216 -1586
99.973099 102.064 200.73 8029274 -1569
99.973099 102.063 200.73199 7765590 -1566
99.973099 102.064 200.733 7636076 -1553
99.973099 102.064 200.73399 7898740 -1560
99.973099 102.062 200.73599 7502952 -1551
99.973099 102.064 200.737 7635560 -1540
99.973099 102.065 200.73801 7109224 -1541
99.973099 102.062 200.74001 7502964 -1545
99.973099 102.063 200.742 7500912 -1549
99.973099 102.064 200.743 8290406 -1545
99.972801 102.067 200.743 8159348 -1549
99.973099 102.064 200.746 7638118 -1491
99.973099 102.064 200.74699 7767142 -1427
99.972801 102.066 200.748 8553068 -1443
99.972801 102.068 200.74899 7766112 -1534
99.972801 102.073 200.748 7766638 -1587
99.972801 102.076 200.74899 7634544 -1607
99.972801 102.08 200.748 7241316 -1612
99.974098 102.08 200.748 7897704 -1607
99.974098 102.077 200.748 7502946 -1602
99.974098 102.071 200.74899 7112284 -1604
99.974297 102.067 200.74899 8160866 -1542
99.974297 102.065 200.748 8289386 -1438
99.974297 102.063 200.74699 7898212 -1394
99.974297 102.063 200.746 7767650 -1474
99.974297 102.062 200.745 7766640 -1535
99.974297 102.063 200.743 8551550 -1534
99.974297 102.061 200.742 7894652 -1541
99.974297 102.062 200.74001 7502450 -1534
99.974297 102.061 200.739 7768168 -1542
99.974297 102.061 200.73801 7898222 -1534
99.974297 102.064 200.735 7502444 -1542
99.974297 102.062 200.73399 7635056 -1553
99.974297 102.062 200.733 7897710 -1558
99.974297 102.063 200.731 7501918 -1558
99.974297 102.059 200.731 7505502 -1571
99.974297 102.06 200.73 7244386 -1580
99.974297 102.063 200.72701 7112296 -1576
99.974297 102.063 200.72501 7898746 -1551
99.974297 102.065 200.72301 8423028 -1511
99.974297 102.062 200.72301 8817262 -1461
99.974297 102.062 200.72099 8030318 -1428
99.974297 102.063 200.71899 7374954 -1432
99.974297 102.064 200.718 8162418 -1431
99.974297 102.063 200.717 8948346 -1441
99.974297 102.062 200.715 8291950 -1440
99.974297 102.062 200.714 8031856 -1425
99.974297 102.064 200.71201 6852218 -1430
99.974297 102.061 200.711 6719592 -1428
99.974297 102.063 200.709 8685690 -1437
99.974297 102.064 200.707 7898740 -1432
99.974297 102.064 200.70599 7245926 -1433
99.974297 102.063 200.705 8162406 -1433
99.974297 102.061 200.70399 8290932 -1431
99.975601 102.06 200.70399 7896172 -1431
99.975601 102.059 200.705 9604712 -1436
99.975601 102.063 200.705 8947810 -1430
99.975601 102.06 200.70799 7111788 -1437
99.975601 102.061 200.709 7636592 -1431
99.975601 102.06 200.711 7898222 -1446
99.975601 102.06 200.71201 6982264 -1443
99.975601 102.061 200.714 6459504 -1441
99.975601 102.061 200.715 7769194 -1433
99.975601 102.063 200.715 8029798 -1439
99.975601 102.061 200.718 8290930 -1443
99.975601 102.06 200.71899 8423544 -1423
99.975601 102.06 200.72099 8291942 -1431
99.975601 102.061 200.722 8160350 -1449
99.975601 102.06 200.724 8817776 -1494
99.975601 102.059 200.726 7637106 -1553
99.975601 102.061 200.72701 7768180 -1574
99.975601 102.061 200.728 7765614 -1577
99.975601 102.06 200.73 6718050 -1574
99.975601 102.061 200.731 7634530 -1574
99.975601 102.061 200.73199 7895658 -1555
99.975601 102.063 200.733 7502442 -1547
99.975601 102.061 200.735 8291954 -1542
99.975601 102.06 200.737 8159344 -1541
99.975601 102.061 200.73801 7371880 -1545
99.975601 102.061 200.74001 7636066 -1539
99.975601 102.06 200.742 7634548 -1539
99.975601 102.06 200.743 7763584 -1537
99.975601 102.061 200.744 8420468 -1532
99.975601 102.061 200.745 7372918 -1498
99.975601 102.061 200.74699 8817766 -1414
99.975601 102.062 200.748 8687216 -1392
99.975601 102.065 200.748 7635568 -1502
99.975601 102.069 200.748 7504482 -1579
99.975304 102.073 200.748 7641212 -1603
99.975304 102.075 200.74899 7635048 -1612
99.975304 102.081 200.748 7368306 -1615
99.976601 102.076 200.748 7505006 -1613
99.976601 102.073 200.748 7508608 -1610
99.976799 102.07 200.748 6979186 -1587
99.976799 102.065 200.748 6852204 -1530
99.976799 102.063 200.74699 8163444 -1422
99.976799 102.058 200.748 8029308 -1387
99.976799 102.059 200.746 6587518 -1481
99.976799 102.059 200.744 8162418 -1524
99.976799 102.059 200.743 8030326 -1522
99.976799 102.058 200.742 7110756 -1539
99.976799 102.059 200.74001 7503980 -1536
99.976799 102.06 200.73801 7633004 -1534
99.976799 102.06 200.737 8289892 -1532
99.976799 102.058 200.73599 8423012 -1536
99.976799 102.058 200.735 7763556 -1537
99.976799 102.059 200.733 7500384 -1553
99.976799 102.058 200.73199 7239782 -1567
99.976799 102.06 200.73 7372918 -1571
99.976799 102.059 200.729 8683118 -1574
99.976799 102.06 200.72701 7371894 -1565
99.976799 102.061 200.72501 7374966 -1548
99.976799 102.06 200.724 7504986 -1511
99.976799 102.06 200.722 7897696 -1463
99.976799 102.06 200.72099 8422004 -1435
99.976799 102.06 200.71899 8422006 -1428
99.976799 102.059 200.718 8817264 -1439
99.976799 102.058 200.717 8160872 -1437
99.976799 102.059 200.715 7506538 -1441
99.976799 102.06 200.714 7117434 -1443
99.976799 102.059 200.71201 7637624 -1450
99.976799 102.06 200.71001 8949882 -1433
99.976799 102.058 200.71001 7897198 -1427
99.976799 102.06 200.70799 8159852 -1446
99.976799 102.059 200.70599 9078378 -1450
99.976799 102.059 200.705 8817266 -1439
99.976799 102.06 200.703 8290932 -1439
99.978104 102.057 200.70399 8423034 -1422
99.978104 102.056 200.70599 7897202 -1440
99.978104 102.058 200.707 8816758 -1439
99.978104 102.057 200.709 8947834 -1430
99.978104 102.058 200.71001 8948348 -1429
99.978104 102.059 200.711 8948858 -1428
99.978104 102.057 200.713 8030324 -1439
99.978104 102.056 200.715 7247484 -1444
99.978104 102.057 200.716 7770220 -1432
99.978104 102.057 200.718 7899242 -1448
99.978104 102.056 200.71899 8817274 -1422
99.978104 102.059 200.72 8947322 -1413
99.978104 102.058 200.72099 8290416 -1453
99.978104 102.056 200.724 8292972 -1495
99.978104 102.058 200.72501 7374428 -1541
99.978104 102.056 200.72701 8030330 -1568
99.978104 102.058 200.728 7501944 -1566
99.978104 102.057 200.73 8289912 -1568
99.978104 102.057 200.731 7503472 -1557
99.978104 102.056 200.733 7896172 -1553
99.978104 102.056 200.73399 8026728 -1544
99.978104 102.055 200.73599 7764584 -1541
99.978104 102.057 200.73599 8554606 -1524
99.978104 102.058 200.73801 7895652 -1525
99.978104 102.057 200.74001 8289912 -1541
99.978104 102.058 200.74001 8029302 -1539
99.978104 102.058 200.742 7768172 -1534
99.978104 102.057 200.744 7505512 -1539
99.978104 102.059 200.745 6979676 -1502
99.978104 102.06 200.746 6588530 -1431
99.978104 102.059 200.74699 7637630 -1387
99.978104 102.061 200.748 7898732 -1490
99.978104 102.064 200.748 8295022 -1565
99.978104 102.068 200.748 7110270 -1602
99.978104 102.073 200.748 8162948 -1609
99.978104 102.076 200.748 6979174 -1617
99.979103 102.08 200.748 10267278 -1611
99.979301 102.077 200.748 7900794 -1609
99.979301 102.072 200.748 7634566 -1611
99.979301 102.066 200.74899 6981258 -1603
99.979301 102.065 200.748 7763562 -1582
99.979301 102.06 200.74899 8026738 -1519
99.979301 102.057 200.748 7243380 -1419
99.979301 102.056 200.74699 7506024 -1410
99.979301 102.055 200.746 8029814 -1495
99.979301 102.055 200.745 7898732 -1531
99.979301 102.053 200.744 7635054 -1536
99.979301 102.055 200.741 7898230 -1530
99.979301 102.056 200.74001 7764588 -1530
99.979301 102.058 200.73801 7239792 -1531
99.979301 102.055 200.737 7767172 -1521
99.979301 102.054 200.73599 7239282 -1520
99.979301 102.058 200.73399 7500904 -1537
99.979301 102.055 200.733 7896158 -1541
99.979301 102.055 200.73199 7634522 -1544
99.979301 102.055 200.73 7501930 -1564
99.979301 102.054 200.729 7107688 -1558
99.979301 102.053 200.728 7898224 -1558
99.979301 102.056 200.72501 7898224 -1539
99.979301 102.057 200.72301 7896168 -1487
99.979301 102.055 200.72301 8422504 -1451
99.979301 102.056 200.72099 8028786 -1430
