ply
format ascii 1.0
comment Author: CloudCompare (TELECOM PARISTECH/EDF R&D)
obj_info Generated by CloudCompare!
element vertex 1134
property float x
property float y
property float z
property uchar red
property uchar green
property uchar blue
property float scalar_Scalar_field
end_header
99.6027 101.965 200.738 138 166 168 -1210 
99.6027 101.964 200.737 134 158 162 -1189 
99.6027 101.964 200.736 142 166 150 -1201 
99.6027 101.964 200.734 136 168 152 -1231 
99.6027 101.964 200.733 130 170 164 -1240 
99.6027 101.965 200.732 136 164 160 -1233 
99.6025 101.965 200.73 148 168 158 -1225 
99.6027 101.964 200.729 134 154 156 -1231 
99.6027 101.965 200.727 136 158 166 -1227 
99.6027 101.964 200.706 68 88 86 -1881 
99.6037 101.964 200.726 150 160 162 -1195 
99.6037 101.964 200.727 136 160 158 -1232 
99.6037 101.965 200.729 136 158 156 -1245 
99.604 101.963 200.73 146 164 158 -1237 
99.6035 101.965 200.731 128 158 156 -1253 
99.6037 101.965 200.733 124 166 164 -1232 
99.6037 101.964 200.734 134 164 152 -1227 
99.6037 101.964 200.736 144 164 154 -1227 
99.6037 101.965 200.737 134 160 164 -1194 
99.6037 101.965 200.738 130 156 164 -1219 
99.6037 101.965 200.74 134 160 160 -1226 
99.604 101.963 200.742 140 164 164 -1223 
99.604 101.964 200.743 138 160 164 -1228 
99.604 101.963 200.745 142 164 156 -1237 
99.6037 101.964 200.746 132 176 174 -1216 
99.604 101.963 200.748 226 190 194 -1200 
99.604 101.964 200.749 210 46 50 -1216 
99.605 101.964 200.747 244 198 202 -1180 
99.6052 101.963 200.746 138 184 182 -1226 
99.605 101.965 200.745 134 160 154 -1222 
99.605 101.964 200.743 134 162 152 -1212 
99.6052 101.963 200.741 130 160 160 -1221 
99.6052 101.963 200.739 138 164 168 -1213 
99.605 101.965 200.737 132 148 156 -1221 
99.605 101.964 200.736 150 162 150 -1213 
99.6052 101.963 200.735 140 166 144 -1233 
99.605 101.964 200.733 124 166 148 -1237 
99.6052 101.963 200.732 128 164 154 -1230 
99.6052 101.963 200.731 138 164 150 -1220 
99.605 101.964 200.729 138 172 152 -1226 
99.6052 101.964 200.728 134 164 142 -1223 
99.605 101.965 200.726 146 158 148 -1212 
99.6062 101.965 200.702 54 80 50 -1916 
99.6062 101.964 200.726 136 158 154 -1226 
99.6065 101.963 200.728 150 162 148 -1229 
99.6062 101.965 200.729 134 156 152 -1233 
99.6062 101.965 200.73 142 160 158 -1232 
99.6065 101.963 200.732 138 160 168 -1233 
99.6065 101.963 200.734 124 154 160 -1235 
99.6062 101.964 200.734 136 170 150 -1229 
99.6065 101.963 200.736 140 168 150 -1224 
99.6062 101.965 200.737 138 162 162 -1231 
99.6065 101.964 200.739 136 164 160 -1220 
99.6065 101.963 200.741 138 166 156 -1208 
99.6062 101.964 200.742 138 160 162 -1229 
99.6065 101.964 200.743 140 168 170 -1229 
99.6062 101.964 200.745 142 166 160 -1231 
99.6065 101.963 200.746 138 178 172 -1217 
99.6065 101.964 200.747 240 178 176 -1189 
99.6062 101.965 200.749 210 18 18 -1243 
99.6077 101.964 200.749 232 8 12 -1288 
99.6077 101.963 200.748 220 112 118 -1183 
99.6077 101.963 200.746 150 180 178 -1215 
99.6075 101.964 200.745 130 172 162 -1224 
99.6075 101.964 200.743 134 160 156 -1200 
99.6075 101.965 200.742 144 166 164 -1210 
99.6077 101.964 200.74 132 158 154 -1216 
99.608 101.963 200.74 134 164 162 -1210 
99.6077 101.963 200.738 136 162 160 -1206 
99.608 101.963 200.736 140 166 152 -1225 
99.608 101.963 200.735 134 162 148 -1243 
99.6077 101.964 200.734 134 158 164 -1236 
99.608 101.962 200.733 142 162 170 -1257 
99.6075 101.964 200.73 142 162 160 -1231 
99.6077 101.963 200.729 144 168 162 -1244 
99.6077 101.963 200.728 140 156 156 -1232 
99.6075 101.964 200.726 140 158 160 -1222 
99.6075 101.965 200.724 134 160 156 -1126 
99.6087 101.964 200.703 128 132 114 -1652 
99.609 101.964 200.705 124 132 112 -1452 
99.6085 101.965 200.707 122 160 148 -1098 
99.609 101.963 200.727 138 152 158 -1225 
99.609 101.963 200.728 136 162 158 -1235 
99.609 101.963 200.73 142 168 158 -1248 
99.6087 101.964 200.731 140 162 160 -1239 
99.6092 101.962 200.733 152 170 178 -1223 
99.6092 101.962 200.734 138 156 162 -1233 
99.609 101.963 200.735 138 162 150 -1228 
99.609 101.963 200.737 142 166 152 -1222 
99.6087 101.965 200.738 144 170 170 -1210 
99.609 101.964 200.739 132 160 164 -1212 
99.609 101.964 200.74 144 168 168 -1218 
99.609 101.963 200.742 144 166 164 -1210 
99.609 101.964 200.743 144 168 160 -1217 
99.6087 101.964 200.745 134 180 170 -1228 
99.609 101.963 200.747 158 188 186 -1220 
99.609 101.963 200.748 210 78 88 -1174 
99.609 101.963 200.749 244 0 4 -1310 
99.61 101.965 200.749 252 0 0 -1376 
99.6102 101.964 200.748 196 42 46 -1185 
99.6102 101.964 200.747 152 180 178 -1195 
99.6102 101.963 200.745 134 172 170 -1229 
99.6102 101.964 200.744 150 168 152 -1228 
99.6102 101.963 200.743 140 166 158 -1236 
99.6102 101.963 200.741 132 158 162 -1218 
99.6105 101.962 200.74 138 162 172 -1223 
99.6105 101.962 200.738 136 164 164 -1229 
99.6105 101.962 200.738 142 168 160 -1235 
99.6107 101.961 200.736 144 162 158 -1225 
99.6102 101.963 200.734 144 160 162 -1207 
99.6105 101.963 200.733 132 152 158 -1223 
99.6102 101.964 200.731 138 162 168 -1232 
99.6102 101.964 200.73 138 162 152 -1234 
99.6102 101.964 200.728 134 170 154 -1231 
99.6102 101.964 200.727 138 164 160 -1228 
99.6112 101.964 200.725 132 164 156 -1154 
99.6115 101.964 200.726 134 166 160 -1228 
99.6115 101.963 200.728 124 158 146 -1220 
99.6117 101.962 200.73 140 160 152 -1231 
99.6117 101.962 200.731 136 160 160 -1233 
99.6115 101.964 200.732 138 160 164 -1231 
99.6115 101.963 200.734 146 162 162 -1234 
99.6115 101.963 200.735 150 166 166 -1216 
99.6112 101.965 200.736 136 164 158 -1227 
99.6117 101.962 200.738 140 168 164 -1207 
99.6115 101.963 200.74 134 156 170 -1221 
99.6115 101.963 200.741 134 154 172 -1233 
99.6115 101.963 200.742 142 170 160 -1233 
99.6115 101.963 200.743 148 170 152 -1234 
99.6115 101.964 200.745 152 170 152 -1224 
99.6117 101.962 200.747 160 188 184 -1210 
99.6115 101.964 200.747 236 206 200 -1173 
99.6115 101.964 200.749 250 0 0 -1287 
99.6112 101.965 200.75 252 0 0 -1493 
99.6125 101.965 200.749 254 4 0 -1437 
99.613 101.963 200.749 208 22 14 -1226 
99.6125 101.965 200.747 224 166 158 -1178 
99.613 101.963 200.746 152 180 184 -1212 
99.613 101.963 200.744 150 172 152 -1206 
99.6127 101.964 200.742 142 172 164 -1206 
99.613 101.962 200.742 140 164 174 -1221 
99.6127 101.964 200.74 144 160 178 -1234 
99.6127 101.963 200.738 138 162 166 -1227 
99.613 101.962 200.738 130 160 158 -1229 
99.6132 101.962 200.736 136 162 164 -1225 
99.613 101.963 200.734 140 164 162 -1216 
99.6127 101.964 200.733 128 156 158 -1220 
99.613 101.962 200.732 128 156 162 -1229 
99.613 101.963 200.73 142 160 156 -1231 
99.613 101.963 200.729 138 166 152 -1219 
99.613 101.963 200.727 126 164 156 -1223 
99.6127 101.963 200.726 128 160 152 -1195 
99.6125 101.965 200.723 124 144 148 -1062 
99.6137 101.965 200.722 126 146 150 -988 
99.6137 101.965 200.723 130 144 150 -1056 
99.6142 101.962 200.726 130 154 150 -1188 
99.614 101.963 200.727 130 162 158 -1205 
99.6142 101.962 200.729 132 162 156 -1207 
99.6142 101.962 200.73 152 168 168 -1225 
99.6145 101.961 200.732 140 162 166 -1219 
99.614 101.963 200.733 134 162 162 -1231 
99.6142 101.962 200.734 132 158 156 -1222 
99.6142 101.963 200.736 138 166 168 -1220 
99.6142 101.962 200.738 128 158 158 -1225 
99.6142 101.963 200.738 142 162 166 -1223 
99.614 101.963 200.74 140 156 172 -1207 
99.6142 101.962 200.742 136 150 172 -1223 
99.6142 101.963 200.743 138 166 162 -1221 
99.6142 101.962 200.745 148 176 162 -1225 
99.6142 101.962 200.746 150 182 184 -1203 
99.614 101.963 200.747 202 198 196 -1166 
99.6142 101.962 200.749 224 14 10 -1184 
99.6137 101.964 200.749 252 0 0 -1401 
99.615 101.965 200.749 254 2 0 -1476 
99.6155 101.962 200.749 240 8 6 -1243 
99.6152 101.963 200.747 224 204 202 -1136 
99.6152 101.964 200.746 160 190 192 -1205 
99.6152 101.963 200.745 150 176 164 -1217 
99.6157 101.961 200.744 134 160 156 -1230 
99.6155 101.962 200.742 140 160 170 -1229 
99.6152 101.963 200.74 138 154 166 -1218 
99.6155 101.962 200.739 140 158 162 -1209 
99.6155 101.962 200.738 128 158 156 -1225 
99.6152 101.963 200.736 138 168 168 -1225 
99.6155 101.963 200.734 126 156 150 -1225 
99.6155 101.963 200.733 134 164 162 -1226 
99.6155 101.963 200.732 140 166 170 -1241 
99.6152 101.963 200.73 142 160 164 -1210 
99.6157 101.961 200.73 144 160 150 -1228 
99.6155 101.963 200.728 130 158 156 -1228 
99.6152 101.964 200.726 132 150 150 -1205 
99.615 101.965 200.724 138 146 154 -1090 
99.6162 101.965 200.713 130 156 150 -1021 
99.6162 101.965 200.723 140 148 152 -1042 
99.6167 101.962 200.726 146 152 158 -1167 
99.617 101.962 200.727 130 154 156 -1210 
99.6167 101.963 200.729 138 160 154 -1219 
99.6165 101.963 200.73 132 152 160 -1211 
99.6167 101.963 200.732 140 162 164 -1229 
99.6167 101.962 200.733 142 164 162 -1235 
99.6167 101.962 200.734 140 168 160 -1226 
99.6167 101.963 200.736 136 164 160 -1210 
99.617 101.961 200.738 138 164 160 -1216 
99.6167 101.963 200.738 136 158 154 -1223 
99.617 101.961 200.74 142 164 162 -1236 
99.6167 101.962 200.742 148 168 170 -1233 
99.6167 101.962 200.743 150 170 174 -1212 
99.6167 101.962 200.744 142 164 164 -1215 
99.617 101.961 200.746 150 172 168 -1212 
99.6167 101.962 200.747 248 202 202 -1157 
99.6167 101.963 200.748 216 52 50 -1164 
99.6162 101.964 200.749 254 2 0 -1384 
99.618 101.963 200.749 252 0 0 -1299 
99.618 101.962 200.748 252 204 200 -1132 
99.6182 101.962 200.747 168 202 198 -1183 
99.6182 101.962 200.745 152 172 172 -1226 
99.6182 101.961 200.744 136 150 158 -1219 
99.6182 101.961 200.743 144 162 164 -1227 
99.618 101.963 200.74 146 172 160 -1226 
99.618 101.963 200.739 140 164 158 -1232 
99.6185 101.96 200.739 148 168 166 -1228 
99.618 101.962 200.736 142 168 164 -1231 
99.6182 101.962 200.735 140 166 158 -1218 
99.6182 101.961 200.734 146 168 158 -1227 
99.618 101.962 200.732 140 160 152 -1227 
99.618 101.962 200.731 134 156 168 -1224 
99.618 101.962 200.73 144 162 156 -1215 
99.618 101.962 200.728 132 160 164 -1221 
99.618 101.962 200.727 134 158 164 -1214 
99.6177 101.964 200.725 138 154 150 -1135 
99.6175 101.965 200.719 124 136 126 -1005 
99.6175 101.965 200.718 134 144 132 -1022 
99.6175 101.965 200.715 142 156 154 -1012 
99.6175 101.965 200.712 134 156 150 -1018 
99.6175 101.965 200.706 138 166 156 -1041 
99.6187 101.965 200.705 128 144 144 -1021 
99.6187 101.965 200.706 126 156 154 -1037 
99.6187 101.965 200.712 130 162 160 -1005 
99.6187 101.965 200.718 142 154 134 -1002 
99.6187 101.965 200.722 140 162 140 -979 
99.619 101.964 200.724 136 166 148 -1122 
99.6192 101.963 200.726 124 164 168 -1198 
99.6195 101.96 200.729 130 162 172 -1224 
99.6192 101.962 200.729 138 160 172 -1210 
99.6192 101.962 200.731 132 158 170 -1227 
99.6192 101.962 200.732 142 164 162 -1223 
99.6192 101.962 200.734 152 170 156 -1216 
99.6195 101.961 200.735 144 166 156 -1226 
99.6195 101.961 200.736 144 164 158 -1222 
99.6195 101.961 200.738 146 164 158 -1224 
99.6192 101.962 200.739 148 168 164 -1223 
99.6195 101.961 200.741 144 176 156 -1223 
99.6192 101.962 200.742 138 168 150 -1227 
99.6195 101.961 200.744 154 164 174 -1225 
99.6192 101.962 200.745 156 166 178 -1227 
99.6192 101.963 200.746 178 220 212 -1206 
99.6192 101.962 200.748 244 206 192 -1128 
99.6192 101.962 200.749 254 2 0 -1255 
99.619 101.964 200.75 254 0 0 -1482 
99.6202 101.963 200.749 252 0 0 -1318 
99.6205 101.962 200.748 236 158 158 -1131 
99.6207 101.961 200.747 190 208 202 -1160 
99.6207 101.961 200.745 154 180 166 -1211 
99.6207 101.962 200.744 142 166 154 -1220 
99.6205 101.963 200.742 142 174 158 -1217 
99.6207 101.962 200.741 132 172 164 -1219 
99.6207 101.962 200.74 130 162 162 -1219 
99.6205 101.963 200.738 148 170 166 -1224 
99.6205 101.962 200.736 138 162 156 -1223 
99.6207 101.961 200.736 142 166 164 -1233 
99.6207 101.961 200.734 140 160 162 -1240 
99.6207 101.962 200.732 142 170 164 -1214 
99.6207 101.961 200.731 134 166 156 -1223 
99.6205 101.962 200.73 136 156 144 -1233 
99.6207 101.962 200.728 134 150 180 -1213 
99.6202 101.963 200.726 132 152 168 -1192 
99.6205 101.962 200.725 136 160 144 -1143 
99.62 101.965 200.719 124 140 104 -1004 
99.62 101.965 200.718 134 154 126 -998 
99.62 101.964 200.715 136 166 144 -995 
99.62 101.964 200.714 130 162 158 -1000 
99.62 101.965 200.71 142 160 142 -1041 
99.62 101.965 200.705 140 162 150 -1007 
99.62 101.965 200.704 150 158 160 -985 
99.6212 101.965 200.709 152 170 160 -1027 
99.6212 101.965 200.71 144 158 150 -1016 
99.6212 101.965 200.717 128 148 142 -1019 
99.6212 101.965 200.718 128 146 146 -1013 
99.6212 101.965 200.72 120 140 114 -994 
99.6215 101.964 200.723 140 158 148 -1020 
99.6215 101.964 200.725 140 158 146 -1143 
99.6217 101.962 200.727 130 150 140 -1223 
99.6217 101.962 200.728 138 156 166 -1236 
99.622 101.961 200.73 136 156 162 -1237 
99.6217 101.962 200.731 132 160 138 -1230 
99.622 101.961 200.733 134 158 144 -1214 
99.6217 101.962 200.734 136 154 156 -1215 
99.6217 101.963 200.734 134 156 160 -1229 
99.622 101.961 200.737 150 174 178 -1232 
99.6217 101.962 200.738 136 154 158 -1247 
99.6222 101.959 200.74 142 164 166 -1238 
99.622 101.961 200.741 138 170 166 -1226 
99.6217 101.962 200.742 134 166 160 -1226 
99.6217 101.963 200.743 142 162 164 -1219 
99.6222 101.96 200.746 148 168 176 -1213 
99.622 101.961 200.747 162 186 198 -1198 
99.6217 101.962 200.748 204 98 102 -1120 
99.6215 101.963 200.749 240 6 10 -1288 
99.6212 101.965 200.749 254 2 0 -1502 
99.6227 101.963 200.749 252 0 0 -1422 
99.6232 101.961 200.749 196 70 74 -1184 
99.6235 101.96 200.748 234 208 216 -1154 
99.6235 101.96 200.746 166 188 202 -1202 
99.6232 101.961 200.745 148 166 170 -1206 
99.6232 101.961 200.743 156 176 174 -1219 
99.6232 101.961 200.742 140 168 164 -1221 
99.623 101.963 200.74 136 162 158 -1220 
99.6232 101.961 200.739 138 156 156 -1217 
99.6232 101.961 200.738 138 158 158 -1216 
99.6235 101.96 200.736 136 156 154 -1211 
99.6232 101.961 200.734 144 160 156 -1217 
99.623 101.963 200.732 142 158 146 -1236 
99.623 101.962 200.732 134 162 130 -1234 
99.623 101.962 200.73 140 166 156 -1213 
99.6232 101.962 200.729 140 160 160 -1235 
99.6232 101.961 200.727 142 160 154 -1220 
99.623 101.963 200.725 144 162 156 -1181 
99.623 101.963 200.724 138 156 150 -1067 
99.6227 101.964 200.722 138 156 138 -956 
99.6225 101.965 200.716 138 160 148 -989 
99.6227 101.964 200.715 138 158 162 -1022 
99.6225 101.965 200.713 140 168 164 -1010 
99.6225 101.965 200.712 142 160 160 -1014 
99.6225 101.965 200.71 146 162 156 -1016 
99.6225 101.965 200.706 144 166 148 -1029 
99.6225 101.965 200.703 146 160 154 -1017 
99.6237 101.965 200.705 134 156 142 -1021 
99.6237 101.965 200.707 154 176 156 -1006 
99.6237 101.965 200.708 144 174 156 -1013 
99.6237 101.965 200.71 136 164 154 -1030 
99.6237 101.965 200.712 146 164 168 -1008 
99.6237 101.965 200.714 144 164 160 -1007 
99.624 101.964 200.716 140 158 152 -1008 
99.6237 101.965 200.718 120 132 130 -993 
99.6237 101.965 200.721 128 148 120 -931 
99.624 101.964 200.723 132 154 152 -1035 
99.6242 101.962 200.725 138 164 160 -1181 
99.6242 101.962 200.727 132 158 152 -1217 
99.6242 101.962 200.728 140 162 156 -1228 
99.6245 101.961 200.73 134 156 142 -1201 
99.6247 101.96 200.732 138 158 132 -1227 
99.6245 101.962 200.733 140 158 136 -1229 
99.6245 101.961 200.734 150 170 156 -1223 
99.6245 101.961 200.736 148 172 156 -1214 
99.6245 101.961 200.737 138 166 148 -1239 
99.6245 101.962 200.738 156 176 164 -1229 
99.6245 101.961 200.74 158 174 172 -1223 
99.6245 101.962 200.741 144 164 162 -1211 
99.6245 101.96 200.743 146 164 160 -1211 
99.6242 101.962 200.743 148 168 164 -1216 
99.6247 101.959 200.746 158 180 178 -1227 
99.6247 101.96 200.747 180 204 204 -1170 
99.6245 101.961 200.748 192 34 38 -1159 
99.624 101.963 200.749 252 0 0 -1367 
99.6252 101.964 200.749 254 4 0 -1435 
99.6255 101.963 200.748 196 28 28 -1202 
99.6257 101.961 200.747 254 210 214 -1158 
99.6257 101.961 200.746 162 186 180 -1208 
99.6257 101.962 200.744 144 166 158 -1213 
99.6262 101.959 200.744 146 164 162 -1223 
99.6257 101.961 200.742 152 170 170 -1223 
99.6257 101.961 200.74 158 178 176 -1224 
99.626 101.96 200.739 150 172 164 -1229 
99.6257 101.961 200.737 142 168 154 -1218 
99.6257 101.961 200.736 148 172 160 -1218 
99.6257 101.961 200.734 144 164 156 -1237 
99.6255 101.963 200.732 142 158 146 -1231 
99.6257 101.961 200.732 140 158 142 -1222 
99.6257 101.961 200.73 138 158 154 -1236 
99.6257 101.961 200.729 144 164 166 -1228 
99.6252 101.963 200.727 130 162 154 -1223 
99.6255 101.962 200.725 134 166 160 -1188 
99.6255 101.963 200.724 130 160 158 -1056 
99.625 101.965 200.721 130 148 128 -934 
99.6252 101.964 200.72 120 134 112 -967 
99.625 101.965 200.717 138 150 150 -996 
99.625 101.965 200.716 142 164 152 -1012 
99.625 101.965 200.714 142 166 154 -1014 
99.6252 101.964 200.713 144 164 166 -1013 
99.625 101.965 200.711 142 160 158 -1010 
99.6252 101.964 200.71 140 162 160 -1013 
99.625 101.965 200.708 144 170 162 -1019 
99.625 101.965 200.707 146 168 154 -999 
99.6252 101.964 200.706 150 174 162 -993 
99.625 101.965 200.704 144 168 166 -1030 
99.625 101.965 200.702 146 164 164 -1000 
99.6262 101.965 200.702 140 158 166 -995 
99.6265 101.964 200.704 130 160 158 -1019 
99.6265 101.964 200.706 132 162 150 -1023 
99.6265 101.964 200.707 140 160 160 -1022 
99.6262 101.965 200.708 142 166 170 -1048 
99.6265 101.964 200.71 140 170 166 -1027 
99.6262 101.965 200.711 146 170 154 -1026 
99.6265 101.963 200.715 144 170 168 -1027 
99.6262 101.965 200.715 140 164 150 -1008 
99.6262 101.965 200.717 138 152 142 -1011 
99.6265 101.964 200.722 134 154 150 -953 
99.6267 101.962 200.724 130 156 152 -1094 
99.6272 101.961 200.726 122 158 160 -1211 
99.6272 101.96 200.728 130 164 162 -1223 
99.6272 101.96 200.729 132 156 158 -1223 
99.6275 101.958 200.731 130 148 158 -1235 
99.627 101.961 200.732 136 152 142 -1213 
99.6272 101.96 200.734 140 158 154 -1217 
99.627 101.961 200.734 130 154 158 -1229 
99.6272 101.96 200.736 132 158 162 -1230 
99.6272 101.96 200.738 130 156 156 -1230 
99.6272 101.96 200.739 140 164 164 -1232 
99.627 101.961 200.74 144 166 164 -1214 
99.6272 101.96 200.742 146 166 162 -1214 
99.6272 101.96 200.743 144 164 156 -1216 
99.627 101.961 200.745 146 172 164 -1231 
99.627 101.962 200.745 166 192 188 -1226 
99.627 101.962 200.747 194 222 224 -1148 
99.627 101.961 200.749 212 18 16 -1226 
99.6265 101.964 200.749 252 0 0 -1434 
99.6277 101.964 200.749 254 2 0 -1483 
99.6282 101.961 200.749 224 12 12 -1259 
99.6285 101.96 200.748 196 222 222 -1152 
99.6285 101.96 200.747 164 194 188 -1212 
99.6285 101.96 200.745 148 176 164 -1229 
99.6282 101.961 200.743 138 160 146 -1223 
99.628 101.962 200.741 146 168 156 -1208 
99.6282 101.961 200.74 140 164 160 -1216 
99.6282 101.961 200.739 136 162 158 -1211 
99.6282 101.961 200.737 132 158 162 -1214 
99.6285 101.96 200.736 140 164 170 -1222 
99.6282 101.961 200.734 140 164 168 -1233 
99.6282 101.962 200.733 144 166 156 -1248 
99.6282 101.961 200.732 138 156 142 -1229 
99.6285 101.96 200.731 130 148 154 -1220 
99.6282 101.961 200.729 140 166 162 -1206 
99.6282 101.961 200.727 120 150 154 -1220 
99.6282 101.961 200.726 134 164 172 -1201 
99.628 101.962 200.724 130 156 154 -1102 
99.628 101.963 200.723 126 148 146 -939 
99.6275 101.965 200.72 122 136 144 -934 
99.6275 101.964 200.719 114 128 126 -994 
99.6277 101.964 200.717 138 156 136 -1017 
99.6277 101.964 200.716 138 160 152 -1013 
99.6275 101.965 200.714 140 160 168 -1024 
99.6275 101.965 200.713 134 160 146 -1025 
99.6277 101.964 200.712 140 168 146 -999 
99.6275 101.964 200.71 130 160 140 -999 
99.6277 101.963 200.709 136 162 162 -1026 
99.6277 101.964 200.708 140 162 162 -1045 
99.6275 101.965 200.706 134 168 156 -1022 
99.6277 101.964 200.704 134 166 160 -991 
99.6292 101.963 200.702 140 160 158 -980 
99.6287 101.965 200.702 144 162 156 -994 
99.629 101.965 200.704 132 166 150 -1021 
99.629 101.964 200.706 132 168 156 -1011 
99.6292 101.963 200.708 140 168 162 -977 
99.629 101.964 200.709 140 168 156 -994 
99.629 101.964 200.71 136 164 142 -1007 
99.629 101.964 200.712 138 164 142 -1019 
99.629 101.965 200.713 134 168 146 -1027 
99.629 101.964 200.715 146 162 164 -1025 
99.629 101.964 200.717 144 162 156 -1021 
99.6292 101.962 200.719 114 138 116 -998 
99.629 101.965 200.719 106 134 112 -1007 
99.629 101.964 200.721 120 144 142 -977 
99.6292 101.963 200.723 130 152 154 -986 
99.6292 101.963 200.724 134 152 148 -1125 
99.6295 101.961 200.727 136 156 146 -1202 
99.63 101.959 200.729 124 148 148 -1219 
99.6295 101.962 200.729 134 156 146 -1214 
99.6295 101.961 200.731 130 156 142 -1216 
99.6295 101.961 200.732 146 166 150 -1219 
99.6297 101.96 200.734 144 168 156 -1225 
99.6297 101.96 200.735 134 160 158 -1234 
99.6297 101.96 200.737 138 164 162 -1233 
99.6297 101.96 200.738 138 164 160 -1221 
99.63 101.959 200.74 128 158 150 -1228 
99.63 101.959 200.741 146 172 166 -1222 
99.6295 101.961 200.742 136 156 148 -1225 
99.6297 101.96 200.744 140 164 150 -1225 
99.6295 101.962 200.744 148 178 166 -1232 
99.6295 101.961 200.746 166 192 188 -1204 
99.63 101.959 200.749 202 228 228 -1147 
99.6292 101.962 200.748 238 8 10 -1282 
99.629 101.964 200.749 254 0 0 -1497 
99.63 101.965 200.749 254 0 0 -1479 
99.6307 101.961 200.749 254 0 0 -1274 
99.631 101.96 200.748 210 228 232 -1147 
99.6307 101.961 200.746 180 200 202 -1190 
99.6307 101.962 200.744 142 168 166 -1218 
99.631 101.96 200.743 142 164 166 -1214 
99.6312 101.959 200.742 146 166 174 -1234 
99.6312 101.959 200.741 138 164 166 -1234 
99.631 101.96 200.739 142 168 166 -1231 
99.631 101.96 200.738 144 162 160 -1210 
99.631 101.96 200.736 148 166 166 -1194 
99.631 101.96 200.735 134 158 158 -1207 
99.631 101.96 200.734 144 166 164 -1217 
99.631 101.96 200.732 130 158 142 -1211 
99.6312 101.959 200.731 142 168 156 -1216 
99.6307 101.961 200.729 146 166 158 -1223 
99.631 101.96 200.728 150 168 146 -1229 
99.631 101.96 200.727 142 158 136 -1211 
99.6307 101.961 200.725 132 150 150 -1151 
99.6305 101.963 200.722 128 148 154 -964 
99.6305 101.963 200.721 110 138 124 -975 
99.6302 101.964 200.719 102 132 112 -993 
99.6305 101.963 200.718 118 144 130 -1008 
99.6305 101.963 200.717 136 156 146 -1051 
99.63 101.965 200.714 142 160 148 -1043 
99.6302 101.964 200.713 144 172 152 -1018 
99.6305 101.963 200.712 144 166 148 -1007 
99.6302 101.964 200.71 136 164 150 -1000 
99.63 101.965 200.708 134 162 150 -991 
99.63 101.965 200.707 136 162 154 -1005 
99.63 101.965 200.706 140 174 160 -1027 
99.63 101.965 200.704 140 172 158 -1031 
99.6302 101.965 200.703 140 160 150 -1031 
99.6315 101.965 200.703 144 160 152 -991 
99.6315 101.964 200.704 134 160 152 -1014 
99.6315 101.964 200.706 128 162 142 -1019 
99.6315 101.964 200.708 140 172 156 -1028 
99.6315 101.964 200.709 144 172 162 -1014 
99.6315 101.964 200.71 148 174 164 -1023 
99.6315 101.964 200.712 144 164 152 -1031 
99.6315 101.964 200.714 144 172 156 -1011 
99.6315 101.964 200.715 146 166 148 -1043 
99.6315 101.964 200.717 142 162 152 -1028 
99.6315 101.964 200.718 112 136 130 -990 
99.6315 101.964 200.719 98 126 114 -987 
99.6317 101.963 200.721 114 140 130 -973 
99.6317 101.963 200.723 140 156 164 -991 
99.632 101.961 200.725 138 152 156 -1148 
99.632 101.961 200.727 142 156 138 -1208 
99.6322 101.96 200.728 152 166 148 -1216 
99.6322 101.96 200.73 152 170 164 -1212 
99.632 101.961 200.731 146 168 160 -1222 
99.6322 101.96 200.732 148 166 166 -1227 
99.632 101.961 200.734 132 152 154 -1228 
99.6322 101.959 200.735 134 158 162 -1219 
99.6322 101.959 200.737 144 156 162 -1206 
99.6322 101.96 200.738 142 156 160 -1219 
99.6325 101.958 200.74 138 162 162 -1236 
99.6322 101.96 200.741 136 160 164 -1216 
99.632 101.961 200.742 142 160 166 -1203 
99.6322 101.96 200.743 136 156 158 -1238 
99.6322 101.96 200.745 144 168 166 -1226 
99.6322 101.961 200.746 180 198 200 -1183 
99.6322 101.96 200.748 198 212 220 -1151 
99.632 101.961 200.749 252 0 0 -1286 
99.6312 101.965 200.749 254 2 0 -1482 
99.6325 101.965 200.749 254 2 0 -1533 
99.6327 101.963 200.748 252 0 0 -1323 
99.6335 101.96 200.748 200 208 214 -1145 
99.6335 101.96 200.747 206 220 218 -1182 
99.6335 101.959 200.745 154 178 162 -1203 
99.6332 101.961 200.743 158 178 164 -1220 
99.6337 101.959 200.743 142 164 154 -1230 
99.6335 101.96 200.741 140 164 158 -1221 
99.6337 101.959 200.74 138 158 156 -1219 
99.6335 101.959 200.738 150 156 164 -1194 
99.6335 101.96 200.736 144 152 162 -1195 
99.6335 101.96 200.735 152 174 174 -1210 
99.6335 101.96 200.734 148 168 162 -1223 
99.6335 101.96 200.732 140 154 160 -1222 
99.6337 101.959 200.732 140 156 156 -1222 
99.6335 101.959 200.73 142 156 156 -1222 
99.6335 101.96 200.728 148 158 168 -1225 
99.6335 101.96 200.727 144 152 166 -1219 
99.633 101.962 200.725 144 154 164 -1157 
99.633 101.962 200.723 142 156 162 -1004 
99.633 101.963 200.721 128 148 144 -950 
99.6327 101.964 200.719 110 130 128 -1002 
99.6327 101.964 200.718 110 132 134 -998 
99.6327 101.964 200.717 134 156 154 -1003 
99.6327 101.964 200.715 144 168 160 -1029 
99.6327 101.964 200.714 140 164 158 -1026 
99.6327 101.963 200.712 148 164 158 -1023 
99.6327 101.964 200.711 136 156 158 -1028 
99.6327 101.964 200.71 138 164 160 -1037 
99.6327 101.964 200.708 138 170 154 -1020 
99.633 101.963 200.707 132 166 146 -996 
99.6327 101.964 200.705 128 154 148 -1007 
99.6327 101.964 200.703 144 158 152 -1009 
99.633 101.963 200.702 142 162 144 -1023 
99.634 101.964 200.702 134 162 150 -1017 
99.634 101.964 200.704 140 166 160 -1009 
99.6342 101.963 200.706 146 164 168 -1025 
99.6342 101.963 200.707 148 172 172 -1008 
99.6342 101.963 200.708 130 164 146 -1008 
99.634 101.964 200.71 136 170 148 -1024 
99.634 101.964 200.711 148 170 160 -1027 
99.6342 101.962 200.713 148 168 164 -1011 
99.6342 101.963 200.714 138 164 160 -1019 
99.6342 101.963 200.715 136 168 154 -1011 
99.6342 101.963 200.717 132 168 160 -1017 
99.634 101.964 200.718 106 134 144 -998 
99.6342 101.963 200.72 110 130 138 -960 
99.6342 101.963 200.721 136 158 148 -946 
99.6345 101.962 200.723 126 156 148 -1061 
99.6345 101.961 200.727 138 156 170 -1216 
99.6342 101.962 200.749 254 2 0 -1399 
99.5612 101.974 200.677 154 172 160 -1414 
99.5605 101.977 200.677 148 172 154 -1414 
99.561 101.974 200.68 140 170 152 -1416 
99.5612 101.974 200.681 136 170 146 -1404 
99.561 101.975 200.682 138 174 152 -1436 
99.5612 101.974 200.684 132 164 152 -1443 
99.5612 101.974 200.686 136 162 152 -1433 
99.561 101.975 200.687 142 170 150 -1435 
99.561 101.975 200.688 142 176 158 -1418 
99.561 101.975 200.689 136 158 148 -1404 
99.561 101.974 200.691 156 172 162 -1419 
99.5612 101.974 200.693 156 180 164 -1428 
99.561 101.975 200.694 134 168 150 -1430 
99.561 101.975 200.696 136 166 158 -1439 
99.561 101.974 200.697 148 172 170 -1442 
99.561 101.975 200.699 150 176 170 -1444 
99.5625 101.974 200.699 144 172 174 -1240 
99.5622 101.975 200.698 134 164 152 -1219 
99.5625 101.974 200.697 138 172 144 -1219 
99.5622 101.975 200.695 146 172 164 -1229 
99.5622 101.975 200.693 140 166 162 -1229 
99.5622 101.975 200.692 152 174 154 -1231 
99.5625 101.974 200.691 150 172 158 -1225 
99.562 101.975 200.689 152 172 172 -1216 
99.562 101.976 200.687 142 166 158 -1217 
99.5622 101.975 200.686 150 164 158 -1229 
99.562 101.975 200.684 156 168 160 -1214 
99.5622 101.975 200.683 158 174 162 -1223 
99.5622 101.975 200.682 148 178 166 -1216 
99.5622 101.974 200.68 138 168 154 -1220 
99.5622 101.975 200.678 148 174 150 -1236 
99.5622 101.975 200.677 154 168 154 -1230 
99.5635 101.975 200.676 156 164 160 -1061 
99.5635 101.975 200.678 158 174 154 -1081 
99.5637 101.974 200.68 152 180 166 -1072 
99.5635 101.975 200.681 134 162 158 -1045 
99.5635 101.975 200.682 144 168 154 -1081 
99.5637 101.974 200.684 148 170 154 -1073 
99.5635 101.975 200.685 148 168 162 -1064 
99.5637 101.974 200.687 146 170 162 -1056 
99.5637 101.974 200.689 140 160 158 -1066 
99.5635 101.976 200.689 146 166 162 -1048 
99.5635 101.975 200.691 144 166 154 -1044 
99.5635 101.975 200.693 148 170 154 -1066 
99.5637 101.974 200.695 144 166 158 -1067 
99.5632 101.976 200.695 138 166 152 -1036 
99.5637 101.974 200.697 154 182 166 -1050 
99.5637 101.974 200.699 152 182 174 -1058 
99.5635 101.975 200.7 146 174 162 -1066 
99.5635 101.975 200.702 142 170 156 -1076 
99.565 101.974 200.701 144 170 156 -1064 
99.5652 101.973 200.7 140 168 154 -1045 
99.565 101.974 200.698 126 154 142 -1047 
99.5647 101.975 200.696 132 158 152 -1038 
99.565 101.975 200.695 140 166 158 -1054 
99.565 101.974 200.694 146 170 152 -1024 
99.5647 101.975 200.692 152 174 156 -1030 
99.5647 101.975 200.691 152 172 166 -1020 
99.5645 101.976 200.689 144 164 162 -1030 
99.565 101.974 200.688 146 166 164 -1036 
99.565 101.974 200.686 144 164 160 -1046 
99.5647 101.975 200.684 148 168 160 -1042 
99.5647 101.975 200.683 146 168 154 -1052 
99.565 101.975 200.682 146 172 168 -1073 
99.5647 101.975 200.68 136 164 156 -1073 
99.565 101.974 200.679 148 172 150 -1073 
99.565 101.974 200.678 152 164 158 -1061 
99.5657 101.976 200.676 148 168 158 -1043 
99.5665 101.973 200.679 140 164 146 -1043 
99.5662 101.974 200.68 140 164 166 -1066 
99.5662 101.975 200.682 144 162 166 -1021 
99.5662 101.975 200.683 150 170 158 -1052 
99.5662 101.975 200.684 144 170 154 -1058 
99.5662 101.975 200.686 144 170 166 -1046 
99.566 101.975 200.687 152 172 168 -1046 
99.5662 101.974 200.689 146 164 160 -1059 
99.5662 101.975 200.691 148 168 160 -1035 
99.5662 101.975 200.692 152 174 156 -1040 
99.5662 101.974 200.693 146 166 150 -1048 
99.5662 101.974 200.695 142 166 158 -1051 
99.566 101.975 200.696 144 164 166 -1029 
99.5662 101.974 200.698 146 170 170 -1017 
99.5662 101.974 200.7 142 170 148 -1062 
99.5662 101.975 200.701 150 176 154 -1053 
99.5677 101.973 200.702 146 170 154 -1013 
99.5675 101.974 200.7 142 168 150 -1026 
99.5675 101.975 200.698 144 170 160 -1034 
99.5675 101.974 200.697 148 170 168 -1028 
99.5675 101.975 200.695 144 166 160 -1023 
99.5675 101.974 200.694 146 168 156 -1036 
99.5675 101.974 200.693 150 170 154 -1028 
99.5675 101.974 200.691 154 174 162 -1039 
99.5677 101.973 200.69 148 168 164 -1055 
99.5677 101.974 200.689 146 164 162 -1051 
99.5675 101.974 200.687 136 164 160 -1019 
99.5675 101.974 200.686 134 168 162 -1024 
99.5675 101.975 200.684 154 174 162 -1046 
99.5675 101.974 200.682 146 160 164 -1024 
99.5675 101.975 200.681 136 154 168 -1022 
99.5677 101.973 200.68 138 160 144 -1040 
99.5675 101.974 200.678 146 168 148 -1044 
99.5672 101.975 200.676 136 160 162 -1026 
99.5687 101.975 200.677 152 178 166 -1048 
99.5687 101.974 200.679 146 168 150 -1021 
99.5687 101.975 200.68 134 158 158 -1020 
99.5687 101.975 200.681 140 162 166 -1013 
99.569 101.973 200.684 146 166 154 -1022 
99.569 101.973 200.685 138 170 158 -1056 
99.5687 101.974 200.686 130 166 160 -1032 
99.5687 101.974 200.688 150 168 154 -1023 
99.5687 101.974 200.689 140 162 152 -1025 
99.5687 101.974 200.691 140 162 154 -1026 
99.5687 101.974 200.692 146 168 152 -1028 
99.569 101.973 200.694 150 172 160 -1017 
99.5687 101.974 200.695 142 162 160 -1028 
99.569 101.974 200.697 148 172 162 -1043 
99.5687 101.974 200.698 144 170 156 -1021 
99.5687 101.974 200.699 140 162 158 -1009 
99.5692 101.972 200.702 148 172 162 -1033 
99.5702 101.973 200.702 142 164 160 -1010 
99.57 101.974 200.7 140 162 164 -1010 
99.57 101.975 200.698 140 164 158 -1017 
99.57 101.975 200.697 150 174 160 -1015 
99.57 101.974 200.695 142 164 162 -1032 
99.5702 101.973 200.695 148 168 160 -998 
99.57 101.974 200.693 152 174 154 -985 
99.5702 101.973 200.692 140 162 154 -988 
99.57 101.974 200.69 146 170 162 -990 
99.57 101.974 200.688 156 174 158 -1020 
99.5702 101.973 200.687 142 172 162 -1052 
99.5702 101.973 200.686 134 170 164 -1048 
99.5702 101.974 200.684 148 170 158 -1001 
99.5705 101.972 200.683 150 170 160 -1009 
99.5702 101.973 200.681 148 170 168 -1020 
99.5697 101.975 200.679 146 168 156 -1035 
99.57 101.974 200.678 146 172 158 -1051 
99.5702 101.973 200.677 144 176 166 -1040 
99.5652 101.973 200.703 138 162 156 -1063 
99.5662 101.974 200.703 140 162 156 -1055 
99.5662 101.974 200.704 146 166 166 -1061 
99.566 101.975 200.705 148 168 158 -1056 
99.5677 101.974 200.706 146 168 166 -1044 
99.5675 101.974 200.704 150 166 164 -1019 
99.5677 101.973 200.704 146 166 160 -1019 
99.5687 101.974 200.702 152 174 158 -1037 
99.569 101.973 200.704 148 166 160 -1050 
99.569 101.973 200.706 150 176 170 -1035 
99.569 101.973 200.707 136 166 164 -1035 
99.5687 101.975 200.708 136 164 160 -1023 
99.5702 101.973 200.709 142 172 160 -1022 
99.5702 101.974 200.708 138 170 164 -1037 
99.5705 101.972 200.707 148 174 162 -1066 
99.5702 101.974 200.705 152 172 162 -1044 
99.57 101.974 200.703 152 172 158 -1000 
99.5717 101.973 200.676 142 174 158 -1021 
99.5717 101.973 200.678 144 168 152 -1048 
99.5717 101.973 200.68 146 166 154 -1019 
99.5717 101.973 200.681 150 172 164 -1049 
99.5717 101.974 200.682 138 164 154 -1056 
99.572 101.973 200.684 146 174 160 -1044 
99.5717 101.973 200.685 142 172 162 -1037 
99.5717 101.974 200.687 142 164 152 -1033 
99.5717 101.973 200.689 150 166 150 -1031 
99.5717 101.973 200.69 142 168 158 -1033 
99.5717 101.974 200.691 142 168 158 -1012 
99.572 101.973 200.693 148 174 158 -992 
99.5717 101.973 200.694 146 170 162 -1015 
99.5717 101.973 200.696 146 170 174 -1014 
99.5717 101.974 200.697 140 168 154 -1014 
99.572 101.973 200.699 144 172 154 -1026 
99.5717 101.974 200.7 138 162 168 -1009 
99.5717 101.974 200.702 140 164 164 -987 
99.573 101.974 200.702 150 176 172 -994 
99.573 101.974 200.7 144 170 172 -1010 
99.5732 101.972 200.699 140 166 158 -1016 
99.5732 101.973 200.698 126 154 146 -1033 
99.573 101.974 200.696 144 168 170 -1002 
99.5727 101.974 200.694 140 166 154 -999 
99.573 101.974 200.693 140 168 148 -1009 
99.5727 101.974 200.691 144 172 160 -1040 
99.573 101.973 200.69 142 170 158 -1025 
99.573 101.973 200.689 154 170 158 -1031 
99.5732 101.973 200.688 148 168 158 -1043 
99.573 101.973 200.686 138 168 156 -1040 
99.573 101.973 200.684 132 164 148 -1040 
99.573 101.973 200.683 132 160 146 -1057 
99.5727 101.974 200.681 138 160 150 -1044 
99.5732 101.972 200.68 148 170 160 -1019 
99.573 101.973 200.678 148 170 150 -1037 
99.573 101.973 200.677 134 168 146 -1037 
99.5745 101.972 200.677 144 178 154 -1035 
99.5745 101.973 200.678 150 170 146 -1026 
99.5742 101.973 200.68 148 170 158 -1013 
99.5742 101.974 200.681 146 172 162 -1004 
99.5742 101.974 200.682 138 170 154 -1009 
99.574 101.974 200.684 134 170 154 -1012 
99.5742 101.973 200.686 138 166 150 -1000 
99.5745 101.973 200.688 154 168 158 -1010 
99.5745 101.973 200.689 158 170 168 -1034 
99.5742 101.974 200.69 138 168 154 -1041 
99.5742 101.974 200.691 136 168 152 -1030 
99.5745 101.973 200.693 142 170 152 -1027 
99.5745 101.973 200.695 138 166 152 -1025 
99.5745 101.972 200.697 142 172 164 -1007 
99.5742 101.974 200.697 138 166 170 -1025 
99.5745 101.973 200.699 138 166 170 -1030 
99.5745 101.973 200.701 136 166 156 -1029 
99.5755 101.974 200.701 134 164 152 -1026 
99.576 101.971 200.701 126 156 154 -1026 
99.5757 101.973 200.698 134 162 170 -1032 
99.5757 101.972 200.697 128 156 158 -1017 
99.576 101.972 200.696 136 166 150 -1028 
99.5757 101.973 200.694 136 166 150 -1036 
99.5755 101.973 200.692 134 166 150 -1038 
99.5755 101.973 200.691 140 172 156 -1043 
99.5757 101.973 200.689 142 174 162 -1029 
99.5755 101.974 200.688 148 160 152 -1030 
99.5755 101.974 200.686 140 156 140 -1017 
99.576 101.972 200.686 140 178 162 -1024 
99.5755 101.974 200.683 128 166 152 -1010 
99.5757 101.972 200.682 144 170 160 -1040 
99.5755 101.973 200.68 150 172 160 -1028 
99.5757 101.972 200.68 154 172 154 -1024 
99.5755 101.973 200.678 144 176 152 -1023 
99.5757 101.972 200.676 122 170 162 -1034 
99.5772 101.972 200.678 144 162 162 -1017 
99.577 101.972 200.679 146 168 166 -1034 
99.5767 101.973 200.68 138 164 158 -1022 
99.5767 101.974 200.681 138 154 138 -1026 
99.577 101.973 200.683 154 172 152 -1039 
99.5775 101.971 200.686 134 174 148 -1063 
99.577 101.973 200.686 142 180 162 -1034 
99.5767 101.974 200.687 142 164 158 -1044 
99.5767 101.973 200.689 148 168 160 -1034 
99.577 101.973 200.691 148 162 174 -1027 
99.577 101.973 200.692 140 164 166 -1045 
99.577 101.973 200.693 128 166 144 -1025 
99.5772 101.972 200.695 126 174 136 -1011 
99.5772 101.972 200.697 130 164 148 -1003 
99.5772 101.972 200.698 146 162 156 -1017 
99.577 101.972 200.699 150 174 160 -1031 
99.577 101.972 200.701 130 162 164 -1040 
99.5782 101.973 200.7 140 170 162 -1007 
99.5782 101.973 200.698 142 158 154 -1014 
99.5782 101.972 200.697 142 158 154 -1017 
99.5782 101.973 200.695 136 170 148 -1032 
99.5782 101.972 200.694 134 172 146 -1046 
99.5787 101.971 200.693 142 158 156 -1031 
99.5782 101.973 200.691 146 160 162 -1036 
99.5785 101.972 200.69 144 158 162 -1030 
99.5785 101.971 200.689 152 162 168 -1026 
99.5785 101.972 200.687 152 160 168 -1017 
99.5782 101.972 200.686 142 166 160 -1049 
99.5782 101.973 200.684 140 166 152 -1039 
99.5785 101.972 200.683 134 162 148 -1031 
99.5782 101.973 200.681 130 168 150 -1024 
99.5782 101.972 200.68 152 176 160 -1019 
99.5782 101.973 200.678 146 162 150 -1022 
99.578 101.974 200.676 130 154 144 -1041 
99.5797 101.972 200.676 126 154 140 -1098 
99.5797 101.972 200.678 132 152 146 -1087 
99.5797 101.972 200.679 142 154 162 -1107 
99.5795 101.973 200.68 136 160 160 -1112 
99.5797 101.972 200.682 136 164 148 -1085 
99.5797 101.972 200.684 134 156 144 -1069 
99.5795 101.973 200.685 140 156 156 -1055 
99.5795 101.973 200.686 152 160 156 -1045 
99.5797 101.972 200.688 154 156 150 -1055 
99.5797 101.972 200.689 140 154 160 -1068 
99.5797 101.972 200.691 142 156 156 -1039 
99.5797 101.971 200.693 144 160 150 -1046 
99.5795 101.973 200.693 140 162 150 -1054 
99.5795 101.973 200.695 142 164 154 -1043 
99.5797 101.972 200.697 152 164 160 -1023 
99.5797 101.972 200.698 142 158 156 -1007 
99.5797 101.972 200.7 140 166 158 -996 
99.5795 101.973 200.701 138 170 160 -1001 
99.581 101.972 200.701 132 164 156 -1027 
99.5807 101.973 200.699 144 160 152 -1023 
99.5807 101.973 200.697 154 164 156 -1021 
99.581 101.972 200.696 154 160 160 -1053 
99.581 101.971 200.695 152 158 168 -1029 
99.5807 101.972 200.693 150 164 158 -1024 
99.5807 101.972 200.692 146 164 148 -1047 
99.5807 101.972 200.69 146 158 156 -1056 
99.581 101.971 200.689 150 160 150 -1075 
99.5807 101.972 200.687 154 162 148 -1071 
99.581 101.971 200.686 148 162 158 -1121 
99.581 101.972 200.684 138 154 156 -1146 
99.581 101.971 200.683 148 154 154 -1188 
99.5807 101.973 200.681 140 148 150 -1192 
99.5807 101.972 200.68 128 140 150 -1192 
99.581 101.971 200.679 116 140 156 -1204 
99.581 101.972 200.678 108 134 134 -1225 
99.5822 101.973 200.676 90 116 100 -1359 
99.5825 101.971 200.678 82 118 108 -1373 
99.5825 101.971 200.68 86 122 120 -1349 
99.5827 101.97 200.682 118 136 134 -1332 
99.5827 101.97 200.683 134 134 142 -1305 
99.5825 101.971 200.684 136 146 156 -1287 
99.582 101.973 200.685 142 160 156 -1264 
99.5822 101.972 200.687 146 162 154 -1222 
99.582 101.973 200.688 152 164 158 -1171 
99.5822 101.972 200.69 150 158 158 -1154 
99.5825 101.971 200.691 146 158 156 -1094 
99.5822 101.973 200.693 144 170 146 -1051 
99.5822 101.972 200.694 148 164 154 -1035 
99.5822 101.973 200.695 152 156 170 -1052 
99.5825 101.971 200.697 150 160 160 -1041 
99.5825 101.971 200.699 142 158 148 -1041 
99.5825 101.971 200.7 140 166 160 -1032 
99.5822 101.972 200.702 142 174 166 -1009 
99.5835 101.972 200.701 134 164 160 -998 
99.5837 101.971 200.7 140 166 148 -1026 
99.5835 101.972 200.698 140 164 148 -1048 
99.5835 101.972 200.696 144 160 168 -1044 
99.5835 101.972 200.695 150 170 170 -1033 
99.5835 101.972 200.693 136 170 142 -1034 
99.5832 101.973 200.691 136 164 150 -1130 
99.5835 101.972 200.691 142 148 162 -1211 
99.5837 101.971 200.689 140 154 146 -1272 
99.5837 101.971 200.688 122 154 140 -1345 
99.5837 101.971 200.686 102 136 144 -1406 
99.584 101.969 200.686 84 110 130 -1466 
99.5837 101.97 200.684 92 104 92 -1488 
99.5845 101.967 200.684 86 100 88 -1522 
99.5845 101.967 200.682 60 90 108 -1567 
99.584 101.969 200.68 42 76 84 -1580 
99.5835 101.971 200.677 58 80 44 -1570 
99.5857 101.968 200.678 62 60 26 -1772 
99.5855 101.969 200.688 110 142 132 -1612 
99.585 101.971 200.689 122 148 118 -1506 
99.5852 101.97 200.691 136 154 154 -1402 
99.585 101.971 200.692 132 160 164 -1297 
99.585 101.971 200.693 142 172 148 -1165 
99.5852 101.97 200.695 142 174 152 -1080 
99.585 101.971 200.696 132 164 154 -1054 
99.585 101.972 200.697 142 164 156 -1052 
99.5847 101.972 200.699 146 168 150 -1044 
99.585 101.972 200.7 128 162 148 -1039 
99.585 101.971 200.702 134 160 156 -1007 
99.5862 101.971 200.701 140 164 156 -1061 
99.586 101.972 200.699 138 174 154 -1075 
99.5857 101.973 200.697 142 162 146 -1143 
99.5862 101.971 200.697 122 156 142 -1157 
99.5862 101.971 200.695 118 160 138 -1128 
99.5862 101.971 200.694 134 156 134 -1208 
99.5862 101.971 200.693 122 146 140 -1368 
99.5862 101.971 200.691 106 142 130 -1551 
99.5872 101.967 200.691 106 130 114 -1680 
99.5885 101.967 200.693 90 118 126 -1772 
99.588 101.969 200.693 96 124 138 -1608 
99.5877 101.97 200.694 106 124 100 -1419 
99.5877 101.97 200.696 94 122 92 -1255 
99.5875 101.971 200.697 104 136 120 -1241 
99.5875 101.971 200.698 124 146 130 -1241 
99.5875 101.971 200.7 132 162 148 -1223 
99.5875 101.971 200.701 130 162 152 -1134 
99.5887 101.971 200.702 130 162 140 -1230 
99.5887 101.971 200.7 112 126 126 -1334 
99.5882 101.973 200.698 82 104 86 -1403 
99.5887 101.971 200.697 56 74 60 -1407 
99.589 101.97 200.696 70 80 68 -1415 
99.5892 101.969 200.695 80 98 66 -1535 
99.5907 101.967 200.697 82 92 64 -1659 
99.5907 101.968 200.698 76 80 70 -1594 
99.5905 101.969 200.699 54 78 56 -1600 
99.59 101.971 200.7 62 86 70 -1574 
99.59 101.972 200.701 106 120 122 -1472 
99.5912 101.971 200.702 82 100 114 -1624 
99.5917 101.969 200.701 66 74 84 -1713 
99.5922 101.966 200.701 44 78 40 -1724 
99.592 101.967 200.691 56 72 72 -1907 
99.5932 101.967 200.69 84 80 50 -1877 
99.5957 101.968 200.678 76 52 74 -1434 
99.596 101.966 200.68 30 56 22 -1567 
99.596 101.966 200.685 58 52 36 -1652 
99.595 101.972 200.688 36 52 82 -1841 
99.5972 101.967 200.701 52 34 74 -1663 
99.5972 101.967 200.698 42 68 78 -1781 
99.5975 101.966 200.695 36 62 34 -1870 
99.597 101.968 200.693 46 20 60 -1878 
99.5972 101.967 200.692 42 34 54 -1871 
99.5972 101.966 200.691 54 56 76 -1843 
99.5972 101.967 200.686 48 60 38 -1669 
99.597 101.968 200.684 58 64 34 -1504 
99.5975 101.966 200.684 88 66 54 -1489 
99.5972 101.967 200.682 92 84 56 -1522 
99.5972 101.967 200.68 58 82 36 -1469 
99.597 101.967 200.679 78 82 68 -1341 
99.5967 101.969 200.677 110 112 106 -1219 
99.598 101.969 200.678 70 98 102 -1154 
99.5982 101.968 200.68 78 94 84 -1271 
99.5982 101.968 200.681 94 102 60 -1400 
99.5985 101.967 200.683 86 100 64 -1449 
99.5985 101.967 200.684 68 66 58 -1433 
99.5982 101.968 200.685 62 52 46 -1565 
99.5982 101.968 200.687 42 42 50 -1763 
99.5985 101.967 200.689 28 24 50 -1849 
99.5977 101.97 200.693 62 26 32 -1915 
99.5977 101.971 200.696 34 66 40 -1894 
99.598 101.969 200.698 18 54 44 -1855 
99.5985 101.967 200.702 66 44 66 -1822 
99.5975 101.978 200.697 48 60 42 -1923 
99.5992 101.97 200.699 54 58 68 -1907 
99.5997 101.967 200.699 28 52 56 -1937 
99.5995 101.968 200.689 14 14 42 -1931 
99.5997 101.968 200.686 50 32 32 -1640 
99.5997 101.967 200.685 72 74 60 -1385 
99.5995 101.968 200.683 76 92 58 -1335 
99.5995 101.968 200.682 104 100 70 -1305 
99.599 101.97 200.679 94 90 78 -1178 
99.599 101.97 200.678 90 102 100 -1087 
99.5992 101.969 200.676 90 112 110 -1035 
99.6005 101.969 200.676 80 112 80 -1002 
99.6007 101.969 200.678 116 112 108 -1017 
99.6005 101.969 200.679 96 92 84 -1050 
99.6005 101.969 200.68 106 104 84 -1126 
99.6007 101.968 200.682 96 104 62 -1204 
99.601 101.967 200.684 68 74 10 -1249 
99.6007 101.968 200.686 70 58 40 -1508 
99.6012 101.972 200.686 18 18 50 -1924 
99.6017 101.97 200.686 38 38 66 -1634 
99.602 101.969 200.684 74 82 14 -1223 
99.6017 101.969 200.683 82 98 28 -1072 
99.6017 101.969 200.681 80 98 52 -1072 
99.6022 101.967 200.681 90 104 78 -1010 
99.6022 101.968 200.679 100 110 86 -1014 
99.602 101.968 200.678 90 122 74 -1005 
99.603 101.97 200.676 98 134 92 -960 
99.603 101.969 200.678 88 134 98 -1007 
99.603 101.969 200.68 96 136 94 -985 
99.603 101.969 200.681 106 136 96 -986 
99.603 101.968 200.683 98 122 64 -995 
99.603 101.969 200.684 56 92 30 -1086 
99.603 101.968 200.686 28 64 58 -1428 
99.603 101.97 200.686 32 50 54 -1822 
99.603 101.969 200.702 38 66 40 -1927 
99.6035 101.972 200.699 44 50 22 -1938 
99.6035 101.972 200.686 38 48 56 -1771 
99.6042 101.968 200.686 38 72 62 -1398 
99.6042 101.968 200.685 54 104 42 -1050 
99.6045 101.967 200.684 90 118 60 -958 
99.6042 101.969 200.682 128 144 102 -942 
99.6042 101.968 200.68 114 154 112 -975 
99.6042 101.968 200.679 102 150 112 -970 
99.6042 101.968 200.678 112 146 114 -954 
99.6042 101.968 200.676 116 142 106 -966 
99.6057 101.967 200.678 136 150 146 -965 
99.6055 101.968 200.679 128 156 156 -962 
99.6055 101.969 200.68 134 150 114 -949 
99.6057 101.967 200.682 140 154 118 -915 
99.6055 101.968 200.683 110 144 114 -881 
99.6055 101.968 200.685 66 116 82 -911 
99.6057 101.967 200.686 34 90 58 -1143 
99.6052 101.969 200.687 34 50 62 -1527 
99.6055 101.969 200.689 26 16 42 -1807 
99.6047 101.972 200.689 60 42 58 -1948 
99.607 101.968 200.701 92 100 82 -1783 
99.607 101.967 200.7 80 86 80 -1879 
99.6065 101.97 200.697 54 50 46 -1938 
99.6065 101.97 200.691 52 64 52 -1893 
99.606 101.973 200.689 58 62 46 -1809 
99.6067 101.968 200.689 66 68 18 -1657 
99.6067 101.968 200.688 72 74 36 -1368 
99.6067 101.968 200.686 94 98 82 -1041 
99.607 101.967 200.685 128 144 140 -868 
99.607 101.968 200.684 134 156 144 -853 
99.6067 101.969 200.682 128 158 136 -888 
99.607 101.968 200.681 130 158 146 -918 
99.607 101.967 200.68 128 154 166 -926 
99.607 101.968 200.678 136 168 154 -951 
99.607 101.967 200.676 124 162 144 -960 
99.6082 101.967 200.677 128 166 148 -963 
99.6082 101.968 200.678 126 162 146 -937 
99.608 101.968 200.679 138 160 172 -923 
99.6082 101.967 200.681 128 160 150 -940 
99.6082 101.967 200.682 124 156 144 -917 
99.6082 101.967 200.684 136 154 148 -876 
99.6082 101.968 200.685 148 154 150 -854 
99.608 101.969 200.686 120 118 102 -949 
99.6082 101.968 200.688 108 106 76 -1158 
99.6082 101.968 200.689 80 88 40 -1436 
99.6082 101.968 200.691 56 70 42 -1638 
99.6085 101.966 200.693 62 72 56 -1748 
99.6085 101.966 200.695 50 60 22 -1812 
99.6082 101.967 200.696 54 66 52 -1833 
99.6095 101.967 200.702 126 150 134 -1394 
99.6092 101.969 200.7 132 160 138 -1543 
99.6097 101.966 200.699 116 132 120 -1625 
99.6095 101.967 200.697 120 132 132 -1674 
99.6092 101.969 200.695 100 118 122 -1695 
99.6092 101.968 200.694 114 100 110 -1654 
99.6095 101.967 200.693 96 90 90 -1578 
99.6095 101.968 200.691 118 130 116 -1449 
99.6095 101.967 200.69 112 128 118 -1246 
99.6095 101.968 200.689 126 140 144 -1024 
99.6097 101.966 200.688 140 152 146 -922 
99.6097 101.967 200.686 144 164 144 -886 
99.6095 101.968 200.684 138 160 148 -883 
99.6092 101.969 200.682 134 158 154 -918 
99.6095 101.967 200.681 126 152 148 -934 
99.6095 101.967 200.68 128 152 156 -941 
99.6095 101.968 200.678 134 166 152 -941 
99.6095 101.968 200.677 138 170 158 -958 
99.6107 101.968 200.676 130 156 154 -940 
99.6105 101.968 200.678 136 166 156 -931 
99.6105 101.969 200.678 132 160 174 -919 
99.6107 101.967 200.681 126 154 160 -931 
99.6107 101.967 200.682 136 158 156 -943 
99.6107 101.968 200.684 130 152 144 -944 
99.6107 101.967 200.685 138 160 140 -911 
99.6107 101.967 200.687 132 156 140 -921 
99.6107 101.967 200.688 134 156 158 -905 
99.6107 101.968 200.689 132 152 150 -949 
99.6107 101.967 200.691 132 150 142 -1137 
99.611 101.966 200.693 132 140 132 -1275 
99.6107 101.968 200.694 136 138 130 -1363 
99.6107 101.967 200.695 112 142 142 -1424 
99.6107 101.967 200.697 120 140 146 -1444 
99.6107 101.967 200.698 126 140 136 -1422 
99.611 101.966 200.701 122 150 132 -1343 
99.6107 101.967 200.701 114 150 140 -1240 
99.6122 101.967 200.701 118 154 142 -1108 
99.6122 101.967 200.699 136 152 146 -1158 
